ncols        141
nrows        45
xllcorner    356256
yllcorner    6857440
cellsize     16.000000000000
NODATA_value  -9999
-9999 -9999 -9999 -9999 -9999 -9999 -9999 -9999 -9999 -9999 170.9550018310546875 169.93499755859375 166.2859954833984375 164.837005615234375 165.5279998779296875 167.0540008544921875 169.781005859375 174.1670074462890625 176.0099945068359375 178.3300018310546875 179.272003173828125 178.41900634765625 176.6660003662109375 176.1699981689453125 171.457000732421875 169.1479949951171875 166.9669952392578125 164.930999755859375 165.1609954833984375 166.100006103515625 165.8379974365234375 163.720001220703125 161.0319976806640625 158.89599609375 157.6020050048828125 156.1439971923828125 156.6360015869140625 156.516998291015625 156.42999267578125 155.3809967041015625 155.3589935302734375 155.0839996337890625 155.1360015869140625 156.29400634765625 158.180999755859375 156.1609954833984375 153.7960052490234375 153.2740020751953125 152.0970001220703125 151.3730010986328125 151.1020050048828125 150.80499267578125 150.673004150390625 150.509002685546875 150.6540069580078125 151.2140045166015625 151.7910003662109375 152.2649993896484375 152.2949981689453125 152.25 153.1529998779296875 152.3939971923828125 151.6880035400390625 151.707000732421875 150.0200042724609375 146.68499755859375 144.2899932861328125 142.9640045166015625 142.73699951171875 142.822998046875 142.781005859375 142.79400634765625 142.636993408203125 142.1219940185546875 142.2239990234375 141.6020050048828125 141.9080047607421875 141.800994873046875 141.8430023193359375 141.8300018310546875 141.74200439453125 141.035003662109375 141.40899658203125 141.5959930419921875 141.5919952392578125 141.766998291015625 141.74200439453125 141.9420013427734375 141.8600006103515625 141.96099853515625 142.0399932861328125 142.0370025634765625 142.0449981689453125 142.0359954833984375 142.003997802734375 141.8489990234375 142.2429962158203125 142.22900390625 142.2129974365234375 142.2700042724609375 143.029998779296875 143.1219940185546875 142.447998046875 142.436004638671875 141.9239959716796875 142.399993896484375 142.40899658203125 142.410003662109375 142.15899658203125 142.11700439453125 142.1479949951171875 141.93499755859375 142.59100341796875 148.5420074462890625 150.764007568359375 147.5420074462890625 148.68499755859375 150.253997802734375 148.4459991455078125 149.4530029296875 148.917999267578125 149.7550048828125 152.311004638671875 154.8950042724609375 155.28399658203125 154.707000732421875 -9999 -9999 -9999 -9999 -9999 -9999 -9999 -9999 -9999 -9999 -9999 -9999 -9999 -9999 -9999
-9999 -9999 -9999 -9999 -9999 -9999 -9999 -9999 -9999 -9999 171.384002685546875 171.212005615234375 170.19000244140625 168.5460052490234375 167.2599945068359375 167.264007568359375 168.785003662109375 170.9369964599609375 174.40899658203125 175.5800018310546875 177.67999267578125 178.53900146484375 178.4239959716796875 176.535003662109375 172.66900634765625 169.9499969482421875 167.10400390625 166.5670013427734375 165.511993408203125 165.6280059814453125 164.68499755859375 162.779998779296875 161.11700439453125 159.71600341796875 158.623992919921875 157.6089935302734375 158.4550018310546875 158.41400146484375 157.531005859375 155.813995361328125 155.339996337890625 155.1100006103515625 155.531005859375 157.23699951171875 158.886993408203125 157.1230010986328125 154.225006103515625 153.089996337890625 152.3350067138671875 151.4149932861328125 151.0269927978515625 150.7239990234375 150.63299560546875 150.5240020751953125 150.464996337890625 150.712005615234375 151.11199951171875 151.9329986572265625 152.4680023193359375 152.16900634765625 152.4149932861328125 153.1779937744140625 151.897003173828125 151.7519989013671875 150.9969940185546875 146.8849945068359375 145.311004638671875 143.41400146484375 143 142.9470062255859375 142.8339996337890625 142.7779998779296875 142.621002197265625 141.8130035400390625 142.3509979248046875 142.0839996337890625 142.0059967041015625 141.8379974365234375 141.72900390625 141.860992431640625 141.718994140625 141.2689971923828125 141.30499267578125 141.5570068359375 141.6510009765625 141.7310028076171875 141.73199462890625 141.7039947509765625 141.8509979248046875 141.9550018310546875 142.022003173828125 142.03399658203125 142.0460052490234375 142.001007080078125 142.0410003662109375 142.0149993896484375 142.0789947509765625 142.23199462890625 142.3390045166015625 142.2769927978515625 142.9759979248046875 142.9149932861328125 142.77099609375 142.3079986572265625 142.248992919921875 142.3379974365234375 142.4170074462890625 142.3589935302734375 142.1280059814453125 142.292999267578125 142.19500732421875 142.121002197265625 142.186004638671875 144.9380035400390625 148.0319976806640625 145.985992431640625 145.6439971923828125 146.0529937744140625 146.246002197265625 147.67999267578125 149.03900146484375 151.9320068359375 152.886993408203125 153.5879974365234375 153.39300537109375 150.8820037841796875 149.1320037841796875 -9999 -9999 -9999 -9999 -9999 -9999 -9999 -9999 -9999 -9999 -9999 -9999 -9999 -9999
-9999 -9999 -9999 -9999 -9999 -9999 -9999 -9999 167.77099609375 167.89599609375 169.7400054931640625 172.60699462890625 169.75 169.77099609375 170.5019989013671875 171.11199951171875 171.40899658203125 170.13800048828125 173.447998046875 174.85699462890625 175.781005859375 177.1479949951171875 177.7270050048828125 176.5059967041015625 172.7299957275390625 169.1020050048828125 167.0469970703125 167.587005615234375 166.4900054931640625 164.63800048828125 163.376007080078125 161.522003173828125 160.647003173828125 159.9900054931640625 160.2920074462890625 160.113006591796875 159.673004150390625 158.996002197265625 157.3979949951171875 156.47900390625 155.8509979248046875 155.7440032958984375 156.0469970703125 160.25799560546875 160.5800018310546875 158.0529937744140625 154.6959991455078125 153.15899658203125 152.253997802734375 151.496002197265625 150.947998046875 150.8950042724609375 150.59100341796875 150.5059967041015625 150.5200042724609375 150.6529998779296875 150.779998779296875 151.47900390625 152.1609954833984375 152.1139984130859375 152.707000732421875 152.962005615234375 151.6790008544921875 151.52099609375 149.9810028076171875 147.1049957275390625 145.9199981689453125 144.072998046875 143.3000030517578125 143.2689971923828125 143.0449981689453125 142.38299560546875 142.389007568359375 142.6999969482421875 142.561004638671875 142.0059967041015625 142.13800048828125 141.891998291015625 141.7469940185546875 141.878997802734375 141.8159942626953125 141.417999267578125 141.287994384765625 141.464996337890625 141.572998046875 141.667999267578125 141.8260040283203125 141.572998046875 141.6020050048828125 141.944000244140625 142.0019989013671875 142.0460052490234375 142.0059967041015625 142.037994384765625 141.990997314453125 141.875 141.8899993896484375 141.9510040283203125 142.016998291015625 142.0460052490234375 142.43499755859375 142.983001708984375 142.9250030517578125 142.7480010986328125 142.313995361328125 142.475006103515625 142.389007568359375 142.3220062255859375 142.3159942626953125 142.322998046875 142.235992431640625 142.3029937744140625 142.0879974365234375 142.3249969482421875 144.240997314453125 143.9850006103515625 144.7449951171875 145.863006591796875 147.427001953125 148.0930023193359375 152.4290008544921875 157.1349945068359375 155.069000244140625 153.2599945068359375 150.009002685546875 149.162994384765625 148.6100006103515625 -9999 -9999 -9999 -9999 -9999 -9999 -9999 -9999 -9999 -9999 -9999 -9999 -9999 -9999
-9999 -9999 -9999 -9999 -9999 -9999 -9999 -9999 167.7570037841796875 167.826995849609375 169.3300018310546875 172.50799560546875 170.35400390625 170.7039947509765625 171.5670013427734375 172.3699951171875 172.093994140625 170.5709991455078125 172.92999267578125 175.555999755859375 176.3029937744140625 176.5630035400390625 176.800994873046875 176.2480010986328125 172.8899993896484375 168.9219970703125 166.5829925537109375 167.4470062255859375 166.4380035400390625 163.7740020751953125 163.035003662109375 161.4459991455078125 160.274993896484375 159.9709930419921875 161.2140045166015625 161.4420013427734375 160.802001953125 159.386993408203125 157.2530059814453125 156.63299560546875 155.80999755859375 155.9219970703125 156.4709930419921875 160.4669952392578125 160.7760009765625 158.8780059814453125 154.8950042724609375 153.3459930419921875 152.26800537109375 151.4980010986328125 151.2960052490234375 150.876007080078125 150.6179962158203125 150.576995849609375 150.509002685546875 150.667999267578125 150.509002685546875 151.4149932861328125 151.733001708984375 152.108001708984375 152.4900054931640625 152.843994140625 152.524993896484375 151.498992919921875 149.04400634765625 146.83099365234375 145.9429931640625 144.496002197265625 143.4199981689453125 143.246002197265625 143.1920013427734375 143.08599853515625 142.66900634765625 142.78900146484375 142.6009979248046875 142.1820068359375 142.253997802734375 142.0630035400390625 141.6060028076171875 141.906005859375 141.86700439453125 141.5420074462890625 141.0970001220703125 141.3390045166015625 141.5879974365234375 141.5919952392578125 141.7949981689453125 141.7230072021484375 141.7230072021484375 141.936004638671875 141.97900390625 142.0460052490234375 141.9940032958984375 142.029998779296875 142.0529937744140625 141.9369964599609375 141.8719940185546875 141.9739990234375 141.97900390625 142.00799560546875 142.3650054931640625 143.0399932861328125 142.91400146484375 142.805999755859375 142.4369964599609375 142.154998779296875 142.41400146484375 142.475006103515625 142.2870025634765625 142.2530059814453125 142.2910003662109375 142.225006103515625 142.1750030517578125 142.3520050048828125 143.3209991455078125 143.865997314453125 144.8179931640625 147.9250030517578125 148.8070068359375 149.4759979248046875 154.2740020751953125 158.4969940185546875 156.9320068359375 154.048004150390625 150.1909942626953125 148.5469970703125 149.1009979248046875 -9999 -9999 -9999 -9999 -9999 -9999 -9999 -9999 -9999 -9999 -9999 -9999 -9999 -9999
-9999 -9999 -9999 -9999 -9999 -9999 -9999 -9999 167.9420013427734375 167.7169952392578125 167.7570037841796875 169.897003173828125 170.4739990234375 171.6880035400390625 173.14300537109375 172.7469940185546875 173.238006591796875 171.3639984130859375 171.6699981689453125 173.95599365234375 176.3300018310546875 175.9040069580078125 176.647003173828125 174.88800048828125 173.875 170.1199951171875 166.977996826171875 167.378997802734375 167.449005126953125 163.30499267578125 162.173004150390625 160.6609954833984375 160.0200042724609375 160.4420013427734375 165.3350067138671875 166.21099853515625 163.6670074462890625 162.675994873046875 157.8280029296875 156.55499267578125 156.01800537109375 156.628997802734375 159.0189971923828125 160.7469940185546875 161.1490020751953125 160.0959930419921875 156.0850067138671875 154.0279998779296875 152.555999755859375 151.996002197265625 151.561004638671875 151.16400146484375 150.7449951171875 150.5460052490234375 150.4799957275390625 150.552001953125 150.720001220703125 151.0980072021484375 151.595001220703125 151.7920074462890625 152.3280029296875 152.4600067138671875 152.7519989013671875 151.6609954833984375 148.677001953125 146.610992431640625 146.0579986572265625 144.6869964599609375 143.889007568359375 143.3170013427734375 143.2769927978515625 143.0800018310546875 143.0800018310546875 142.962005615234375 142.8130035400390625 142.8600006103515625 142.610992431640625 142.1699981689453125 141.927001953125 141.615997314453125 141.8509979248046875 141.8809967041015625 141.514007568359375 141.1219940185546875 141.4629974365234375 141.6089935302734375 141.6609954833984375 141.837005615234375 141.89300537109375 141.9170074462890625 141.94500732421875 141.906005859375 141.9770050048828125 142.0030059814453125 142.01800537109375 142.001007080078125 141.8809967041015625 141.8899993896484375 141.9669952392578125 142.1710052490234375 142.173004150390625 142.8549957275390625 143.248992919921875 142.6620025634765625 142.5399932861328125 142.360992431640625 142.4739990234375 142.33099365234375 142.2180023193359375 142.2870025634765625 142.225006103515625 142.1519927978515625 142.0670013427734375 142.1719970703125 142.615997314453125 143.7870025634765625 145.9239959716796875 149.6580047607421875 151.07000732421875 151.8509979248046875 156.082000732421875 157.08599853515625 158.1829986572265625 156.7429962158203125 151.5679931640625 148.66400146484375 150.11199951171875 -9999 -9999 -9999 -9999 -9999 -9999 -9999 -9999 -9999 -9999 -9999 -9999 -9999 -9999
-9999 -9999 -9999 -9999 -9999 -9999 -9999 -9999 167.3589935302734375 167.6089935302734375 167.56500244140625 168.031005859375 169.51300048828125 171.677001953125 172.160003662109375 172.9980010986328125 173.531005859375 171.7610015869140625 172.8350067138671875 174.8170013427734375 175.3800048828125 176.177001953125 177.03399658203125 174.537994384765625 173.2259979248046875 171.02099609375 166.188995361328125 167.16900634765625 166.9380035400390625 163.852996826171875 162.845001220703125 160.6199951171875 159.78900146484375 160.615997314453125 165.531005859375 168.6710052490234375 165.001007080078125 163.0229949951171875 158.4680023193359375 156.8549957275390625 156.61700439453125 158.3509979248046875 161.36700439453125 161.897003173828125 161.85699462890625 160.8800048828125 157.832000732421875 154.625 153.60699462890625 152.5050048828125 152.100006103515625 151.5269927978515625 150.9940032958984375 150.610992431640625 150.464996337890625 150.4669952392578125 150.7599945068359375 151.9470062255859375 152.074005126953125 152.2899932861328125 152.46600341796875 151.9629974365234375 152.2989959716796875 152.371002197265625 149.5619964599609375 147.5269927978515625 146.7400054931640625 145.23199462890625 144.3300018310546875 143.6139984130859375 143.39300537109375 143.2339935302734375 143.2910003662109375 143.1399993896484375 143.0319976806640625 142.8990020751953125 142.8430023193359375 142.41400146484375 142.1649932861328125 141.9929962158203125 141.878997802734375 141.925994873046875 141.7339935302734375 141.51800537109375 141.1280059814453125 141.38800048828125 141.6439971923828125 141.6009979248046875 141.86199951171875 141.9160003662109375 141.845001220703125 141.8730010986328125 141.9069976806640625 141.9550018310546875 141.98699951171875 141.9969940185546875 141.6349945068359375 141.863006591796875 141.923004150390625 141.930999755859375 141.8300018310546875 142.746002197265625 143.24200439453125 142.7440032958984375 142.423004150390625 142.313995361328125 142.332000732421875 142.2010040283203125 142.2550048828125 142.2610015869140625 142.2949981689453125 142.17999267578125 142.175994873046875 142.3690032958984375 142.8699951171875 143.6300048828125 144.9149932861328125 148.2089996337890625 151.3170013427734375 151.7989959716796875 154.5780029296875 156.128997802734375 157.0670013427734375 152.3249969482421875 148.123992919921875 148.2700042724609375 157.574005126953125 159.5290069580078125 156.0890045166015625 -9999 -9999 -9999 -9999 -9999 -9999 -9999 -9999 -9999 -9999 -9999 -9999
-9999 -9999 -9999 -9999 -9999 -9999 -9999 -9999 168.173004150390625 167.9160003662109375 167.70599365234375 167.886993408203125 170.147003173828125 172.305999755859375 171.70599365234375 173.0989990234375 173.4369964599609375 172.576995849609375 173.3119964599609375 173.8079986572265625 173.5449981689453125 174.7790069580078125 176.13800048828125 174.194000244140625 172.417999267578125 169.2389984130859375 165.897003173828125 166.451995849609375 166.524993896484375 164.5919952392578125 162.4380035400390625 160.800994873046875 160.444000244140625 160.8809967041015625 164.8430023193359375 168.031005859375 164.550994873046875 162.0500030517578125 159.037994384765625 157.3690032958984375 159.292999267578125 160.3159942626953125 163.384002685546875 163.024993896484375 161.9239959716796875 161.0670013427734375 158.156005859375 155.8480072021484375 154.352996826171875 153.1880035400390625 152.667999267578125 152.0460052490234375 151.425994873046875 150.865997314453125 150.4810028076171875 150.3280029296875 150.5500030517578125 151.180999755859375 152.0050048828125 152.3690032958984375 152.0930023193359375 151.8480072021484375 152.003997802734375 151.8899993896484375 150.7310028076171875 147.7220001220703125 146.9429931640625 145.843994140625 144.906005859375 143.889007568359375 143.4799957275390625 143.524993896484375 143.5749969482421875 143.3650054931640625 143.2180023193359375 143.0619964599609375 142.69000244140625 142.662994384765625 142.2480010986328125 141.9120025634765625 142.01300048828125 141.91900634765625 141.951995849609375 141.677001953125 141.514007568359375 141.0319976806640625 141.4600067138671875 141.714996337890625 141.740997314453125 141.8260040283203125 141.917999267578125 141.886993408203125 141.9120025634765625 141.8979949951171875 141.90899658203125 141.938995361328125 141.6410064697265625 141.8419952392578125 141.985992431640625 141.8249969482421875 141.845001220703125 142.5059967041015625 143.227996826171875 143.0149993896484375 142.4409942626953125 142.337005615234375 141.858001708984375 142.3950042724609375 142.2519989013671875 142.2440032958984375 142.23699951171875 142.18499755859375 142.0469970703125 142.30499267578125 142.5160064697265625 143.01800537109375 144.225006103515625 146.264007568359375 149.96600341796875 151.4799957275390625 152.1100006103515625 154.80999755859375 155.281005859375 148.720001220703125 147.7169952392578125 149.0540008544921875 160.697998046875 161.44500732421875 160.1269989013671875 -9999 -9999 -9999 -9999 -9999 -9999 -9999 -9999 -9999 -9999 -9999 -9999
-9999 -9999 -9999 -9999 -9999 -9999 -9999 -9999 171.0970001220703125 169.9080047607421875 168.037994384765625 167.2570037841796875 169.2440032958984375 170.951995849609375 171.9210052490234375 172.3040008544921875 172.2230072021484375 172.85400390625 173.7339935302734375 173.930999755859375 173.4940032958984375 173.5050048828125 174.464996337890625 173.121002197265625 170.9739990234375 167.8209991455078125 165.58599853515625 165.8639984130859375 166.6750030517578125 165.264007568359375 162.0330047607421875 160.9010009765625 160.625 161.4420013427734375 163.41900634765625 166.2729949951171875 164.2259979248046875 160.996002197265625 158.886993408203125 158.9380035400390625 160.3939971923828125 161.58599853515625 164.160003662109375 163.5 162.2389984130859375 160.7969970703125 159.33099365234375 156.0160064697265625 155.2700042724609375 153.90899658203125 153.2660064697265625 152.8679962158203125 152.3769989013671875 151.58099365234375 150.9029998779296875 150.4799957275390625 150.305999755859375 150.468994140625 151.19000244140625 151.64599609375 151.822998046875 151.8079986572265625 151.6280059814453125 151.8300018310546875 151.7389984130859375 148.615997314453125 147.28900146484375 146.156005859375 145.009002685546875 144.160003662109375 143.75 143.746002197265625 143.7030029296875 143.621002197265625 143.4120025634765625 143.1280059814453125 143.0919952392578125 143.0399932861328125 142.4499969482421875 142.048004150390625 142.016998291015625 141.951995849609375 141.9199981689453125 141.875 141.8000030517578125 141.5789947509765625 141.06500244140625 141.6100006103515625 141.67999267578125 141.800994873046875 141.727996826171875 141.8350067138671875 141.910003662109375 141.9019927978515625 141.9770050048828125 141.9199981689453125 141.7429962158203125 141.89599609375 141.8489990234375 141.850006103515625 141.8600006103515625 142.2230072021484375 143.233001708984375 143.2729949951171875 142.9010009765625 142.2660064697265625 142.3390045166015625 142.3509979248046875 142.3509979248046875 142.25799560546875 142.1779937744140625 142.14300537109375 142.087005615234375 142.1049957275390625 142.1139984130859375 142.6150054931640625 143.4810028076171875 145.227996826171875 147.772003173828125 150.589996337890625 151.305999755859375 152.197998046875 149.9889984130859375 148.2100067138671875 147.2079925537109375 148.69000244140625 157.71600341796875 161.574005126953125 160.7050018310546875 159.53399658203125 -9999 -9999 -9999 -9999 -9999 -9999 -9999 -9999 -9999 -9999 -9999
-9999 -9999 -9999 -9999 -9999 -9999 -9999 -9999 171.6909942626953125 170.63299560546875 169.1750030517578125 168.0469970703125 168.136993408203125 168.69500732421875 170.186004638671875 171.1660003662109375 172.1100006103515625 173.5709991455078125 173.863006591796875 172.649993896484375 173.6439971923828125 172.7899932861328125 170.9080047607421875 169.82000732421875 167.149993896484375 165.925994873046875 163.740997314453125 163.2100067138671875 163.8639984130859375 164.3289947509765625 162.1660003662109375 161.227996826171875 162.4369964599609375 161.6580047607421875 162.470001220703125 164.0789947509765625 162.884002685546875 160.9799957275390625 159.71600341796875 160.3769989013671875 161.16400146484375 162.386993408203125 162.98699951171875 163.373992919921875 162.24200439453125 161.3220062255859375 159.4429931640625 157.03399658203125 156.1479949951171875 155.701995849609375 154.73199462890625 153.9600067138671875 153.6280059814453125 153.128997802734375 151.733001708984375 150.936004638671875 150.412994384765625 150.21600341796875 150.2559967041015625 150.5670013427734375 151.35400390625 151.5890045166015625 151.7949981689453125 151.8289947509765625 150.55499267578125 150.31500244140625 147.662994384765625 146.4340057373046875 144.86700439453125 144.2899932861328125 143.96600341796875 143.8639984130859375 143.94000244140625 143.7910003662109375 143.444000244140625 143.3260040283203125 143.2039947509765625 143.121002197265625 142.7100067138671875 142.4010009765625 142.175994873046875 142.0670013427734375 142.08599853515625 142.0709991455078125 141.7819976806640625 141.58599853515625 141.2310028076171875 141.4550018310546875 141.5240020751953125 141.7230072021484375 141.753997802734375 141.7689971923828125 141.8379974365234375 141.889007568359375 141.886993408203125 141.860992431640625 141.7550048828125 141.7989959716796875 141.8170013427734375 141.832000732421875 141.86199951171875 141.9109954833984375 142.4969940185546875 143.3589935302734375 143.134002685546875 142.6230010986328125 142.214996337890625 142.0529937744140625 142.2299957275390625 142.23699951171875 142.1829986572265625 142.246002197265625 142.08599853515625 142.0019989013671875 142.1089935302734375 142.33599853515625 143.69000244140625 144.9380035400390625 146.4759979248046875 149.06500244140625 151.134002685546875 151.0890045166015625 148.625 146.80499267578125 147.214996337890625 149.36700439453125 152.91900634765625 157.1360015869140625 158.2220001220703125 156.7920074462890625 -9999 -9999 -9999 -9999 -9999 -9999 -9999 -9999 -9999 -9999 -9999
-9999 -9999 -9999 -9999 -9999 -9999 -9999 -9999 -9999 -9999 170.5189971923828125 168.1190032958984375 168.141998291015625 167.8459930419921875 168.0240020751953125 168.4459991455078125 170.0749969482421875 171.832000732421875 173.2830047607421875 172.00799560546875 170.8560028076171875 169.647003173828125 168.86199951171875 167.1269989013671875 166.3820037841796875 164.923004150390625 163.759002685546875 163.1490020751953125 162.4290008544921875 161.6620025634765625 161.4810028076171875 161.688995361328125 162.287994384765625 162.343994140625 162.957000732421875 163.0359954833984375 160.5540008544921875 160.3730010986328125 160.55499267578125 161.5829925537109375 161.8470001220703125 161.852996826171875 162.4850006103515625 162.3289947509765625 162.339996337890625 162.082000732421875 160.7299957275390625 158.2480010986328125 157.697998046875 157.5720062255859375 158.0989990234375 158.656005859375 158.522003173828125 155.8170013427734375 154.781005859375 152.667999267578125 151.1519927978515625 150.2559967041015625 150.397003173828125 150.18499755859375 150.31500244140625 151.4839935302734375 151.3560028076171875 151.649993896484375 151.48199462890625 150.8820037841796875 148.1699981689453125 147.319000244140625 145.25799560546875 144.572998046875 144.0879974365234375 143.9799957275390625 144.029998779296875 143.9510040283203125 143.774993896484375 143.5460052490234375 143.3289947509765625 143.037994384765625 142.7689971923828125 142.7010040283203125 142.6490020751953125 142.5670013427734375 142.201995849609375 142.08099365234375 141.805999755859375 141.7350006103515625 141.43499755859375 141.41900634765625 141.485992431640625 141.649993896484375 141.6410064697265625 141.6300048828125 141.7910003662109375 141.8280029296875 141.813995361328125 141.843994140625 141.8549957275390625 141.7899932861328125 141.800994873046875 141.8679962158203125 141.74200439453125 141.673004150390625 141.8979949951171875 143.0980072021484375 142.9459991455078125 142.68499755859375 142.417999267578125 142.1620025634765625 142.188995361328125 142.2480010986328125 142.2140045166015625 142.2140045166015625 142.024993896484375 142.0410003662109375 142.0720062255859375 142.3280029296875 142.58099365234375 145.0269927978515625 146.128997802734375 148.0240020751953125 149.6450042724609375 150.6569976806640625 147.73199462890625 146.5189971923828125 147.19000244140625 148.332000732421875 148.8809967041015625 150.2220001220703125 153.2389984130859375 154.042999267578125 -9999 -9999 -9999 -9999 -9999 -9999 -9999 -9999 -9999 -9999 -9999
-9999 -9999 -9999 -9999 -9999 -9999 -9999 -9999 -9999 -9999 169.748992919921875 167.688995361328125 168.1100006103515625 168.2310028076171875 168.08599853515625 167.7389984130859375 168.28900146484375 168.7469940185546875 171.08599853515625 171.917999267578125 172.4530029296875 171.949005126953125 171.5110015869140625 173.17999267578125 171.5319976806640625 170.339996337890625 168.7230072021484375 166.2760009765625 164.1699981689453125 162.2610015869140625 161.7530059814453125 161.78399658203125 162.07000732421875 162.2559967041015625 161.6569976806640625 160.5059967041015625 160.2480010986328125 160.326995849609375 160.16400146484375 161.0679931640625 161.9329986572265625 161.6750030517578125 161.9429931640625 162.712005615234375 162.9210052490234375 162.3220062255859375 161.738006591796875 159.9680023193359375 158.964996337890625 159.240997314453125 159.535003662109375 160.259002685546875 160.029998779296875 159.4380035400390625 158.7830047607421875 156.9160003662109375 154.587005615234375 151.9530029296875 150.5839996337890625 150.417999267578125 150.0829925537109375 150.1970062255859375 151.1190032958984375 151.14300537109375 151.2649993896484375 150.26300048828125 150.218994140625 147.4290008544921875 145.9409942626953125 144.9019927978515625 144.6909942626953125 143.8699951171875 144.001007080078125 143.8489990234375 143.8820037841796875 143.694000244140625 143.4199981689453125 143.1959991455078125 142.8520050048828125 142.83099365234375 142.626007080078125 142.6970062255859375 142.54400634765625 142.305999755859375 141.9739990234375 141.71600341796875 141.4640045166015625 141.1580047607421875 141.3719940185546875 141.6670074462890625 141.5279998779296875 141.6840057373046875 141.72900390625 141.72900390625 141.6510009765625 141.8119964599609375 141.7440032958984375 141.7870025634765625 141.774993896484375 141.832000732421875 141.8379974365234375 141.8159942626953125 141.5540008544921875 142.53399658203125 142.875 142.7209930419921875 142.4170074462890625 142.0760040283203125 142.1959991455078125 142.1779937744140625 142.2729949951171875 142.069000244140625 142.05999755859375 142.074005126953125 142.082000732421875 142.2559967041015625 143.608001708984375 144.811004638671875 146.1699981689453125 147.5749969482421875 148.46099853515625 147.3170013427734375 145.9600067138671875 147.0959930419921875 148.352996826171875 149.115997314453125 151.2530059814453125 152.7570037841796875 152.9949951171875 155.1739959716796875 -9999 -9999 -9999 -9999 -9999 -9999 -9999 -9999 -9999 -9999 -9999
-9999 -9999 -9999 -9999 -9999 -9999 -9999 -9999 169.746002197265625 168.477996826171875 168.024993896484375 167.951995849609375 168.1269989013671875 168.2100067138671875 168.1710052490234375 168.1479949951171875 168.311004638671875 169.3070068359375 171.1519927978515625 172.1739959716796875 173.5290069580078125 173.3699951171875 173.7030029296875 173.6450042724609375 173.2769927978515625 172.2469940185546875 169.9759979248046875 168.4530029296875 165.74200439453125 166.9640045166015625 166.2859954833984375 164.49200439453125 162.761993408203125 161.75799560546875 160.5529937744140625 160.6020050048828125 160.5399932861328125 160.4629974365234375 160.50799560546875 160.22900390625 161.069000244140625 161.57000732421875 162.0500030517578125 162.5359954833984375 162.42999267578125 162.08599853515625 161.509002685546875 160.3699951171875 159.194000244140625 159.4380035400390625 159.55499267578125 160.1269989013671875 160.352996826171875 160.71600341796875 161.6569976806640625 160.06500244140625 158.7050018310546875 155.7389984130859375 152.5579986572265625 150.753997802734375 150.55999755859375 149.93499755859375 149.9420013427734375 150.7010040283203125 151.110992431640625 150.8860015869140625 149.988006591796875 148.0789947509765625 146.8179931640625 145.501007080078125 144.798004150390625 144.0679931640625 144.0240020751953125 143.9160003662109375 143.8260040283203125 143.628997802734375 143.4420013427734375 143.313995361328125 143.0279998779296875 142.904998779296875 142.8730010986328125 142.55499267578125 142.38299560546875 142.3800048828125 142.19500732421875 141.8699951171875 141.6569976806640625 141.3979949951171875 141.06500244140625 141.4889984130859375 141.53900146484375 141.649993896484375 141.6820068359375 141.707000732421875 141.7259979248046875 141.675994873046875 141.6349945068359375 141.625 141.7089996337890625 141.8289947509765625 141.7169952392578125 141.6909942626953125 141.7140045166015625 141.5659942626953125 142.7899932861328125 142.798004150390625 142.3300018310546875 142.1230010986328125 141.6320037841796875 142.1710052490234375 142.14300537109375 141.876007080078125 142.072998046875 142.11700439453125 142.1779937744140625 142.186004638671875 143.3600006103515625 145.10699462890625 146.4730072021484375 147.3560028076171875 147.7180023193359375 145.386993408203125 147.128997802734375 152.751007080078125 150.50799560546875 154.7339935302734375 156.373992919921875 156.76800537109375 158.3600006103515625 159.2559967041015625 157.7779998779296875 -9999 -9999 -9999 -9999 -9999 -9999 -9999 -9999 -9999 -9999
-9999 -9999 -9999 -9999 -9999 -9999 -9999 -9999 169.1349945068359375 168.1100006103515625 168.087005615234375 168.3289947509765625 167.906005859375 168.2299957275390625 168.2519989013671875 168.1280059814453125 168.1929931640625 170.141998291015625 171.1020050048828125 171.8300018310546875 172.5290069580078125 173.9680023193359375 173.4459991455078125 173.423004150390625 173.1529998779296875 172.7429962158203125 170.86700439453125 167.772003173828125 166.660003662109375 165.8289947509765625 165.1360015869140625 164.2949981689453125 163.2030029296875 161.1479949951171875 161.9170074462890625 164.34100341796875 163.628997802734375 162.468994140625 162.09100341796875 161.7819976806640625 161.71600341796875 161.75799560546875 162.1519927978515625 162.2729949951171875 162.1300048828125 162.15899658203125 160.654998779296875 159.748992919921875 158.5319976806640625 158.235992431640625 159.123992919921875 159.802001953125 160.1999969482421875 160.975006103515625 161.725006103515625 162.050994873046875 160.3289947509765625 159.718994140625 156.4290008544921875 152.6750030517578125 150.7039947509765625 150.386993408203125 149.55999755859375 149.61700439453125 150.593994140625 150.5070037841796875 149.759002685546875 149.7220001220703125 146.852996826171875 145.962005615234375 145.322998046875 144.5279998779296875 143.951995849609375 143.860992431640625 143.876007080078125 143.529998779296875 143.376007080078125 143.2310028076171875 143.123992919921875 142.8860015869140625 142.798004150390625 142.83599853515625 142.444000244140625 142.3119964599609375 142.089996337890625 141.906005859375 141.8690032958984375 141.701995849609375 141.5370025634765625 141.207000732421875 141.423004150390625 141.6020050048828125 141.6959991455078125 141.656005859375 141.6439971923828125 141.6280059814453125 141.6540069580078125 141.608001708984375 141.677001953125 141.781005859375 141.6490020751953125 141.6719970703125 141.6150054931640625 141.5460052490234375 141.930999755859375 142.79400634765625 142.3119964599609375 142.0529937744140625 142.074005126953125 142.05499267578125 142.09100341796875 141.6410064697265625 142.05499267578125 142.05999755859375 142.0749969482421875 142.149993896484375 144.1829986572265625 144.9640045166015625 147.0099945068359375 147.2140045166015625 145.0970001220703125 144.9149932861328125 154.2449951171875 156.9109954833984375 157.0059967041015625 155.83599853515625 156.6519927978515625 158.615997314453125 159.70599365234375 160.1540069580078125 158.7899932861328125 160.371002197265625 -9999 -9999 -9999 -9999 -9999 -9999 -9999 -9999 -9999
-9999 -9999 -9999 -9999 -9999 -9999 -9999 171.1139984130859375 168.63800048828125 168.5760040283203125 170.720001220703125 171.9279937744140625 169.3489990234375 169.8549957275390625 168.126007080078125 168.3990020751953125 168.2649993896484375 170.75799560546875 172.0050048828125 172.00799560546875 172.6320037841796875 173.3070068359375 174.048004150390625 173.0410003662109375 172.563995361328125 172.477996826171875 170.0160064697265625 167.5019989013671875 165.839996337890625 164.0839996337890625 163.41900634765625 162.7350006103515625 161.2949981689453125 160.5760040283203125 161.839996337890625 165.3690032958984375 165.3289947509765625 164.9120025634765625 164.2760009765625 164.1360015869140625 161.9850006103515625 161.9109954833984375 162.3820037841796875 161.9429931640625 161.6790008544921875 160.9120025634765625 158.8260040283203125 157.0760040283203125 156.962005615234375 157.0720062255859375 157.4589996337890625 158.41900634765625 158.81500244140625 159.4239959716796875 160.9969940185546875 161.5449981689453125 160.8159942626953125 159.8809967041015625 157.79400634765625 154.9219970703125 152.2550048828125 150.970001220703125 150.2129974365234375 149.0970001220703125 150.0800018310546875 150.300994873046875 150.128997802734375 149.011993408203125 147.962005615234375 146.2180023193359375 145.5160064697265625 145.0789947509765625 144.587005615234375 143.9839935302734375 143.9210052490234375 143.61199951171875 143.350006103515625 143.3350067138671875 142.970001220703125 142.9290008544921875 142.781005859375 142.4759979248046875 142.4470062255859375 142.19000244140625 142.0500030517578125 141.787994384765625 141.8600006103515625 141.805999755859375 141.697998046875 141.014007568359375 141.2079925537109375 141.44000244140625 141.6360015869140625 141.662994384765625 141.6970062255859375 141.6439971923828125 141.58599853515625 141.531005859375 141.5110015869140625 141.3950042724609375 141.4539947509765625 141.4949951171875 141.5879974365234375 141.3899993896484375 141.4010009765625 142.6190032958984375 142.2079925537109375 141.990997314453125 141.9889984130859375 141.774993896484375 142.1490020751953125 141.8300018310546875 142.1349945068359375 142.11199951171875 142.050994873046875 142.149993896484375 143.8029937744140625 144.628997802734375 146.5229949951171875 147.0659942626953125 143.98199462890625 147.3000030517578125 155.4579925537109375 158.962005615234375 160.3179931640625 159.281005859375 158.2010040283203125 158.6439971923828125 159.6399993896484375 159.845001220703125 159.964996337890625 160.1609954833984375 160.0590057373046875 -9999 -9999 -9999 -9999 -9999 -9999 -9999 -9999
-9999 -9999 -9999 -9999 -9999 -9999 -9999 172.0590057373046875 171.287994384765625 171.677001953125 171.5460052490234375 172.0579986572265625 170.3130035400390625 171.3600006103515625 168.951995849609375 168.464996337890625 168.2400054931640625 171.563995361328125 171.8040008544921875 172.0570068359375 173.069000244140625 172.2830047607421875 172.7790069580078125 172.6959991455078125 171.677001953125 171.253997802734375 169.272003173828125 167.3300018310546875 164.451995849609375 162.4969940185546875 161.8079986572265625 161.4380035400390625 161.0679931640625 160.1840057373046875 160.2400054931640625 163.7830047607421875 164.81500244140625 165.496002197265625 165.3860015869140625 164.610992431640625 164.53900146484375 161.733001708984375 161.2760009765625 161.2599945068359375 160.9900054931640625 160.871002197265625 157.5670013427734375 156.4940032958984375 155.8860015869140625 155.199005126953125 155.1880035400390625 155.649993896484375 156.9589996337890625 157.6439971923828125 159.8260040283203125 160.7100067138671875 159.7779998779296875 160.3170013427734375 159.326995849609375 157.121002197265625 153.4799957275390625 152.28399658203125 151.38299560546875 149.0529937744140625 149.3589935302734375 150.052001953125 150.072998046875 149.2949981689453125 149.3459930419921875 146.72900390625 145.964996337890625 145.3780059814453125 144.891998291015625 144.488006591796875 144.02099609375 143.5540008544921875 143.332000732421875 143.2519989013671875 143.052001953125 143.069000244140625 142.7310028076171875 142.5319976806640625 142.3699951171875 142.2700042724609375 142.126007080078125 141.996002197265625 141.8179931640625 141.8130035400390625 141.7079925537109375 141.2779998779296875 141.037994384765625 141.3769989013671875 141.563995361328125 141.5200042724609375 141.5269927978515625 141.552001953125 141.4409942626953125 141.2310028076171875 140.9680023193359375 141.2469940185546875 141.2760009765625 141.207000732421875 141.1880035400390625 140.944000244140625 141.1009979248046875 141.9900054931640625 142.449005126953125 141.9340057373046875 142.031005859375 142.05499267578125 142.0260009765625 141.975006103515625 142.04400634765625 142.0980072021484375 142.1020050048828125 141.865997314453125 142.858001708984375 143.800994873046875 144.6049957275390625 144.680999755859375 144.1450042724609375 147.5420074462890625 155.38299560546875 157.8480072021484375 158.4600067138671875 159.46600341796875 159.1049957275390625 158.8470001220703125 158.3260040283203125 159.766998291015625 161.7259979248046875 160.417999267578125 159.53900146484375 158.404998779296875 154.61700439453125 -9999 -9999 -9999 -9999 -9999 -9999
-9999 -9999 -9999 -9999 -9999 -9999 178.1529998779296875 175.2559967041015625 171.5260009765625 172.4709930419921875 171.1920013427734375 170.1750030517578125 170.4969940185546875 170.4120025634765625 169.391998291015625 168.4040069580078125 168.3950042724609375 169.2910003662109375 171.552001953125 171.88299560546875 172.324005126953125 171.50799560546875 171.99200439453125 171.2790069580078125 170.089996337890625 168.753997802734375 167.0260009765625 165.66900634765625 163.569000244140625 162.1660003662109375 161.03399658203125 160.373992919921875 159.8950042724609375 159.86700439453125 158.516998291015625 160.0679931640625 163.65899658203125 164.2169952392578125 165.197998046875 164.30999755859375 164.92999267578125 163.6300048828125 161.3520050048828125 161.1360015869140625 160.36700439453125 158.285003662109375 156.7480010986328125 155.8390045166015625 155.009002685546875 154.6009979248046875 154.2310028076171875 153.904998779296875 153.069000244140625 153.3780059814453125 154.0279998779296875 155.4949951171875 157.1829986572265625 157.43499755859375 159.7039947509765625 158.30999755859375 154.0500030517578125 152.837005615234375 151.7819976806640625 150.501007080078125 148.5919952392578125 149.279998779296875 149.886993408203125 149.764007568359375 148.667999267578125 147.69000244140625 146.3679962158203125 145.7299957275390625 145.2689971923828125 144.8800048828125 144.08599853515625 143.701995849609375 143.63299560546875 143.5800018310546875 143.15899658203125 142.93499755859375 142.876007080078125 142.5619964599609375 142.363006591796875 142.235992431640625 142.0829925537109375 141.878997802734375 141.6020050048828125 141.75 141.7089996337890625 141.332000732421875 141.2760009765625 141.05499267578125 141.0630035400390625 141.300994873046875 141.2169952392578125 141.1660003662109375 141.0489959716796875 141.2760009765625 141.4170074462890625 141.4539947509765625 141.4219970703125 141.449005126953125 141.5099945068359375 141.5050048828125 141.2079925537109375 141.6649932861328125 142.60699462890625 141.923004150390625 141.9759979248046875 141.98199462890625 141.8249969482421875 141.96099853515625 141.9980010986328125 142.0630035400390625 142.0570068359375 141.7769927978515625 142.7230072021484375 143.4499969482421875 143.4680023193359375 143.2449951171875 144.5290069580078125 151.09100341796875 157.3159942626953125 156.899993896484375 157.5670013427734375 158.28399658203125 159.4680023193359375 160.46600341796875 158.3560028076171875 158.3809967041015625 160.4429931640625 160.7819976806640625 161.67999267578125 157.3600006103515625 154.7870025634765625 153.31500244140625 153.050994873046875 -9999 -9999 -9999 -9999
-9999 -9999 -9999 -9999 -9999 178.1490020751953125 178.524993896484375 176.6009979248046875 172.376007080078125 171.1739959716796875 170.0619964599609375 170.0780029296875 171.7079925537109375 170.9900054931640625 168.511993408203125 168.4040069580078125 168.313995361328125 168.365997314453125 170.0260009765625 171.03399658203125 170.3910064697265625 171.03399658203125 170.6719970703125 170.3090057373046875 170.240997314453125 166.7350006103515625 165.3379974365234375 164.3730010986328125 162.343994140625 161.3939971923828125 160.332000732421875 159.03399658203125 158.947998046875 159.035003662109375 157.5760040283203125 157.76800537109375 161.3000030517578125 162.6320037841796875 163.063995361328125 164.0469970703125 163.167999267578125 162.843994140625 161.3800048828125 161.0399932861328125 160.3639984130859375 160.052001953125 158.6399993896484375 156.7920074462890625 154.8979949951171875 154.1399993896484375 153.3650054931640625 153.1199951171875 152.5800018310546875 152.2969970703125 152.281005859375 152.8489990234375 153.4429931640625 154.38800048828125 156.5030059814453125 158.1199951171875 155.7180023193359375 152.5760040283203125 151.4459991455078125 151.03399658203125 148.82000732421875 147.9730072021484375 149.2270050048828125 149.621002197265625 149.0590057373046875 149.1320037841796875 146.9170074462890625 145.949005126953125 145.4600067138671875 144.78900146484375 143.7740020751953125 143.8589935302734375 144.3549957275390625 144.5359954833984375 144.49200439453125 144.50799560546875 143.826995849609375 142.904998779296875 142.21600341796875 142.274993896484375 142.23699951171875 141.7169952392578125 141.90899658203125 141.7039947509765625 141.6490020751953125 141.4940032958984375 141.4669952392578125 141.5780029296875 141.4949951171875 141.572998046875 141.5760040283203125 141.55499267578125 141.485992431640625 141.634002685546875 141.52099609375 141.6439971923828125 141.589996337890625 141.7599945068359375 141.6479949951171875 141.3390045166015625 141.3509979248046875 141.3809967041015625 142.389007568359375 142.0529937744140625 141.9019927978515625 141.8910064697265625 141.5160064697265625 142.0260009765625 141.9949951171875 141.947998046875 141.9420013427734375 141.7429962158203125 142.7350006103515625 142.938995361328125 142.7859954833984375 143.069000244140625 146.66900634765625 154.1349945068359375 156.3979949951171875 156.8820037841796875 158.069000244140625 158.5529937744140625 158.6869964599609375 159.7519989013671875 159.99200439453125 157.4080047607421875 157.8029937744140625 159.61700439453125 161.427001953125 158.4669952392578125 154.871002197265625 152.5570068359375 152.358001708984375 153.39599609375 -9999 -9999 -9999
-9999 -9999 -9999 -9999 -9999 178.035003662109375 178.6190032958984375 176.417999267578125 170.9940032958984375 169.8459930419921875 169.2100067138671875 170.71600341796875 170.9199981689453125 170.5890045166015625 168.4199981689453125 168.2989959716796875 168.0970001220703125 168.3350067138671875 168.412994384765625 169.3979949951171875 169.9040069580078125 169.9669952392578125 169.8549957275390625 168.912994384765625 167.5449981689453125 165.8560028076171875 164.7079925537109375 163.69500732421875 161.5 160.9530029296875 159.7969970703125 158.7859954833984375 158.427001953125 157.5370025634765625 157.4040069580078125 157.4940032958984375 161.410003662109375 162.36700439453125 164.6719970703125 165.0630035400390625 163.748992919921875 163.3209991455078125 162.6490020751953125 161.5930023193359375 161.21099853515625 160.1510009765625 159.733001708984375 158.35699462890625 157.4470062255859375 155.412994384765625 153.936004638671875 153.3860015869140625 152.8690032958984375 152.30999755859375 152.001007080078125 151.9530029296875 152.1300048828125 152.322998046875 154.576995849609375 155.5930023193359375 156.087005615234375 153.251007080078125 152.5019989013671875 151.9080047607421875 149.99200439453125 148.11700439453125 148.4810028076171875 149.61199951171875 149.3560028076171875 148.7550048828125 147.2649993896484375 146.25799560546875 145.1280059814453125 144.272003173828125 144.0970001220703125 144.61199951171875 146.0260009765625 146.64300537109375 147.0359954833984375 147.0099945068359375 145.7559967041015625 143.80499267578125 142.5319976806640625 142.2819976806640625 142.14599609375 142.04400634765625 141.71600341796875 141.7389984130859375 141.6280059814453125 141.718994140625 141.7400054931640625 141.701995849609375 141.6519927978515625 141.74200439453125 141.7599945068359375 141.772003173828125 141.9210052490234375 141.6869964599609375 141.654998779296875 141.949005126953125 141.76800537109375 141.735992431640625 141.61700439453125 141.2910003662109375 141.3130035400390625 141.3560028076171875 142.0829925537109375 142.266998291015625 141.9530029296875 141.8130035400390625 141.8860015869140625 141.9640045166015625 141.923004150390625 141.90899658203125 141.8939971923828125 141.88800048828125 142.44500732421875 142.399993896484375 142.5460052490234375 143.134002685546875 147.1699981689453125 153.8979949951171875 155.2949981689453125 155.9589996337890625 157.3679962158203125 159.930999755859375 158.4329986572265625 159.5780029296875 160.8029937744140625 156.78399658203125 157.6439971923828125 157.048004150390625 156.587005615234375 156.957000732421875 154.6909942626953125 151.9499969482421875 152.16900634765625 153.9279937744140625 -9999 -9999 -9999
-9999 -9999 -9999 -9999 178.6710052490234375 178.3119964599609375 178.147003173828125 174.8780059814453125 171.251007080078125 169.2700042724609375 169.39599609375 170.5149993896484375 170.4340057373046875 169.85699462890625 168.0540008544921875 168.360992431640625 168.108001708984375 168.5489959716796875 168.464996337890625 168.384002685546875 168.5359954833984375 168.7769927978515625 169.0959930419921875 168.32000732421875 167.0500030517578125 165.957000732421875 164.69500732421875 163.5050048828125 161.5970001220703125 160.2129974365234375 159.47900390625 158.9510040283203125 158.8520050048828125 157.5099945068359375 157.46099853515625 157.438995361328125 158.483001708984375 160.5529937744140625 163.587005615234375 165.06500244140625 164.5709991455078125 164.1719970703125 163.9160003662109375 162.7259979248046875 161.7859954833984375 160.8950042724609375 159.983001708984375 159.20599365234375 157.7039947509765625 156.9969940185546875 155.1300048828125 154.727996826171875 153.436004638671875 153.5959930419921875 153.3860015869140625 152.272003173828125 151.957000732421875 151.61700439453125 151.7310028076171875 152.6219940185546875 152.6660003662109375 152.378997802734375 151.5110015869140625 151.6410064697265625 151.6199951171875 148.1909942626953125 148.1150054931640625 149.41900634765625 149.3119964599609375 148.378997802734375 148.779998779296875 146.7550048828125 145.1060028076171875 144.36700439453125 143.5330047607421875 145.753997802734375 147.740997314453125 148.7519989013671875 148.949005126953125 148.8509979248046875 146.7010040283203125 -9999 -9999 -9999 142.055999755859375 142.0030059814453125 141.904998779296875 141.6139984130859375 141.7559967041015625 141.8560028076171875 141.8430023193359375 141.8459930419921875 141.80499267578125 141.865997314453125 141.860992431640625 141.9329986572265625 141.8639984130859375 141.8589935302734375 141.8070068359375 141.7169952392578125 141.7259979248046875 141.7339935302734375 141.61199951171875 141.4459991455078125 140.99200439453125 141.7220001220703125 142.2870025634765625 142.399993896484375 141.8029937744140625 141.8179931640625 141.8260040283203125 141.90899658203125 141.889007568359375 141.8639984130859375 141.878997802734375 141.77099609375 142.093994140625 142.1739959716796875 142.2570037841796875 142.59100341796875 145.714996337890625 151.701995849609375 152.2870025634765625 154.9770050048828125 155.4640045166015625 157.7760009765625 158.261993408203125 160.2389984130859375 160.0420074462890625 157.47900390625 155.983001708984375 156.936004638671875 153.4589996337890625 152.3070068359375 151.91900634765625 151.3910064697265625 152.1020050048828125 153.8070068359375 -9999 -9999 -9999
-9999 -9999 -9999 -9999 178.4730072021484375 177.207000732421875 177.2350006103515625 176.2169952392578125 172.0659942626953125 169.2859954833984375 169.31500244140625 169.8119964599609375 169.906005859375 168.5980072021484375 168.5229949951171875 168.319000244140625 168.1089935302734375 168.6199951171875 168.746002197265625 168.488006591796875 168.468994140625 168.490997314453125 168.6060028076171875 168.8650054931640625 168.7180023193359375 167.427001953125 166.136993408203125 164.23699951171875 162.072998046875 160.97900390625 160.5290069580078125 161.8480072021484375 160.7220001220703125 157.83599853515625 157.4429931640625 157.3430023193359375 157.34100341796875 159.58599853515625 164.0579986572265625 165.2220001220703125 165.2230072021484375 163.927001953125 163.688995361328125 164.082000732421875 161.738006591796875 160.0359954833984375 159.95599365234375 159.875 157.8719940185546875 156.2760009765625 155.8910064697265625 154.40899658203125 153.886993408203125 153.115997314453125 152.5879974365234375 152.160003662109375 153.4510040283203125 154.298004150390625 151.3159942626953125 150.6190032958984375 150.8549957275390625 150.389007568359375 150.8990020751953125 150.8280029296875 149.886993408203125 147.876007080078125 148.2530059814453125 149.0989990234375 149.214996337890625 148.2480010986328125 148.7350006103515625 146.63299560546875 145.371002197265625 -9999 -9999 -9999 -9999 -9999 -9999 -9999 -9999 -9999 -9999 -9999 -9999 -9999 -9999 -9999 141.802001953125 -9999 -9999 -9999 141.91900634765625 141.9040069580078125 141.94000244140625 141.8549957275390625 141.9279937744140625 141.785003662109375 141.7270050048828125 141.6970062255859375 141.6750030517578125 141.8289947509765625 141.753997802734375 141.19500732421875 141.0449981689453125 141.80499267578125 142.4980010986328125 142.3939971923828125 141.998992919921875 141.7220001220703125 141.8390045166015625 141.7429962158203125 141.8560028076171875 141.7859954833984375 141.707000732421875 141.4850006103515625 141.8480072021484375 141.8339996337890625 141.8260040283203125 141.66900634765625 142.1869964599609375 148.43499755859375 151.3820037841796875 152.3029937744140625 153.4420013427734375 155.9680023193359375 156.0189971923828125 158.0930023193359375 157.3280029296875 156.3910064697265625 152.3769989013671875 151.7140045166015625 151.2339935302734375 151.36199951171875 151.233001708984375 151.1609954833984375 -9999 -9999 -9999 -9999 -9999
-9999 -9999 -9999 177.4980010986328125 177.550994873046875 176.6869964599609375 175.4010009765625 174.1009979248046875 173.298004150390625 169.34100341796875 169.26800537109375 169.4069976806640625 168.3509979248046875 168.03900146484375 168.51800537109375 168.4470062255859375 168.45599365234375 168.6230010986328125 169.25 168.5970001220703125 168.5420074462890625 168.6219940185546875 168.509002685546875 168.8079986572265625 169.427001953125 168.3260040283203125 167.5749969482421875 165.938995361328125 164.322998046875 164.511993408203125 165.4380035400390625 164.00799560546875 163.48199462890625 159.00799560546875 157.5749969482421875 157.33099365234375 157.365997314453125 157.7559967041015625 162.871002197265625 165.0970001220703125 165.8730010986328125 165.3159942626953125 163.759002685546875 165.2949981689453125 162.4900054931640625 160.410003662109375 159.912994384765625 160.009002685546875 158.779998779296875 156.8650054931640625 155.975006103515625 155.035003662109375 153.72900390625 152.53399658203125 152.05499267578125 151.8209991455078125 151.8130035400390625 153.1399993896484375 155.1779937744140625 152.9320068359375 150.0319976806640625 149.3459930419921875 149.2899932861328125 148.99200439453125 148.7180023193359375 147.6779937744140625 147.5780029296875 148.074005126953125 148.6959991455078125 147.79400634765625 147.548004150390625 147.83099365234375 -9999 -9999 -9999 -9999 -9999 -9999 -9999 -9999 -9999 -9999 -9999 -9999 -9999 -9999 -9999 -9999 -9999 -9999 -9999 -9999 141.9210052490234375 141.9720001220703125 141.910003662109375 141.977996826171875 142.048004150390625 141.91900634765625 141.964996337890625 141.8589935302734375 141.7389984130859375 141.610992431640625 141.593994140625 141.531005859375 140.9069976806640625 141.4730072021484375 142.47900390625 142.042999267578125 141.985992431640625 141.66400146484375 141.5019989013671875 141.1439971923828125 141.5330047607421875 141.6349945068359375 141.63299560546875 141.5780029296875 141.535003662109375 141.6009979248046875 141.373992919921875 141.2899932861328125 141.54400634765625 143.9980010986328125 144.9420013427734375 146.4929962158203125 146.9320068359375 152.574005126953125 152.96600341796875 151.430999755859375 154.5989990234375 153.363006591796875 150.89300537109375 151.10400390625 151.3079986572265625 151.0489959716796875 151.1750030517578125 151.093994140625 -9999 -9999 -9999 -9999 -9999
-9999 -9999 -9999 176.0290069580078125 176.28399658203125 175.735992431640625 173.552001953125 172.7350006103515625 171.975006103515625 169.264007568359375 169.3379974365234375 169.46099853515625 170.313995361328125 169.16400146484375 168.850006103515625 168.64599609375 168.324005126953125 168.649993896484375 168.6569976806640625 170.748992919921875 168.6750030517578125 168.613006591796875 168.69000244140625 168.514007568359375 169.285003662109375 168.8289947509765625 168.5420074462890625 168.149993896484375 167.037994384765625 170.1410064697265625 169.2350006103515625 166.10400390625 165.05499267578125 162.305999755859375 160.5789947509765625 157.707000732421875 157.188995361328125 157.251007080078125 158.052001953125 163.1479949951171875 164.5850067138671875 164.9149932861328125 163.8690032958984375 164.0489959716796875 163.701995849609375 161.9589996337890625 160.1920013427734375 159.371002197265625 158.8849945068359375 158.389007568359375 155.94000244140625 154.3800048828125 153.3119964599609375 152.7700042724609375 151.873992919921875 151.610992431640625 151.574005126953125 151.9539947509765625 152.9010009765625 153.3070068359375 152.365997314453125 149.647003173828125 149.1219940185546875 148.53399658203125 148.1060028076171875 147.6320037841796875 147.6139984130859375 147.378997802734375 147.128997802734375 147.225006103515625 147.4199981689453125 -9999 -9999 -9999 -9999 -9999 -9999 -9999 -9999 -9999 -9999 -9999 -9999 -9999 -9999 -9999 -9999 -9999 -9999 -9999 -9999 -9999 -9999 142.0279998779296875 141.9109954833984375 141.9550018310546875 141.985992431640625 141.9069976806640625 141.8699951171875 141.8070068359375 141.8029937744140625 141.6450042724609375 141.639007568359375 141.5500030517578125 141.389007568359375 140.8220062255859375 141.6399993896484375 141.779998779296875 141.7649993896484375 141.5579986572265625 141.391998291015625 141.498992919921875 141.3979949951171875 141.449005126953125 141.4429931640625 141.4589996337890625 141.251007080078125 141.1280059814453125 140.93499755859375 141.2230072021484375 141.2089996337890625 141.9900054931640625 143.63299560546875 145.074005126953125 145.0760040283203125 144.79400634765625 145.7769927978515625 146.819000244140625 148.51300048828125 150.3379974365234375 152.180999755859375 154.218994140625 152.884002685546875 151.3159942626953125 151.2859954833984375 -9999 -9999 -9999 -9999 -9999 -9999
-9999 -9999 -9999 -9999 174.3860015869140625 173.2760009765625 172.3600006103515625 172.126007080078125 170.0789947509765625 169.305999755859375 169.3350067138671875 169.4949951171875 172.11199951171875 171.85699462890625 170.837005615234375 169.5269927978515625 168.5110015869140625 168.64300537109375 169.5630035400390625 171.4600067138671875 169.0059967041015625 168.65899658203125 168.4889984130859375 170.399993896484375 171.832000732421875 170.552001953125 168.8249969482421875 171.735992431640625 168.8769989013671875 173.29400634765625 171.6609954833984375 168.462005615234375 166.4199981689453125 164.0279998779296875 161.6439971923828125 159.73199462890625 156.990997314453125 157.1750030517578125 157.0420074462890625 157.7660064697265625 163.3699951171875 163.9109954833984375 164.5359954833984375 163.7010040283203125 163.8419952392578125 162.787994384765625 160.1829986572265625 158.26300048828125 157.319000244140625 158.238006591796875 157.227996826171875 154.96600341796875 152.5319976806640625 152.0970001220703125 151.7559967041015625 151.3329925537109375 151.2270050048828125 151.173004150390625 151.4709930419921875 152.072998046875 152.0059967041015625 150.8220062255859375 149.3090057373046875 149.0619964599609375 148.6060028076171875 147.6190032958984375 147.451995849609375 147.7910003662109375 148.923004150390625 148.764007568359375 -9999 -9999 -9999 -9999 -9999 -9999 -9999 -9999 -9999 -9999 -9999 -9999 -9999 -9999 -9999 -9999 -9999 -9999 -9999 -9999 -9999 -9999 -9999 141.93499755859375 141.90899658203125 141.9629974365234375 141.9940032958984375 141.936004638671875 141.8780059814453125 -9999 141.7559967041015625 141.7760009765625 141.822998046875 141.7449951171875 141.634002685546875 141.0839996337890625 141.2830047607421875 141.49200439453125 141.5919952392578125 141.2969970703125 140.94500732421875 140.9720001220703125 140.80999755859375 140.7760009765625 140.4340057373046875 141.123992919921875 141.069000244140625 140.7180023193359375 140.75 140.824005126953125 141.01300048828125 141.5970001220703125 142.011993408203125 142.813995361328125 143.7530059814453125 145.121002197265625 145.339996337890625 147.714996337890625 150.7969970703125 154.072998046875 154.462005615234375 154.753997802734375 151.7949981689453125 -9999 -9999 -9999 -9999 -9999 -9999 -9999 -9999
-9999 -9999 -9999 -9999 173.7180023193359375 172.897003173828125 171.82000732421875 171.4730072021484375 169.4320068359375 169.322998046875 169.29400634765625 169.4019927978515625 171.389007568359375 172.1219940185546875 171.2819976806640625 170.3390045166015625 168.38800048828125 168.813995361328125 170.2949981689453125 169.9739990234375 168.6360015869140625 168.4759979248046875 168.910003662109375 172.037994384765625 174.53399658203125 176.6519927978515625 172.2769927978515625 169.9579925537109375 170.5260009765625 171.712005615234375 175.06500244140625 172.34100341796875 171.0330047607421875 167.50799560546875 164.0399932861328125 161.425994873046875 158.0269927978515625 157.2169952392578125 157.061004638671875 156.819000244140625 158.3849945068359375 162.8899993896484375 163.5630035400390625 163.699005126953125 162.9900054931640625 163.1710052490234375 159.8899993896484375 158.207000732421875 156.9940032958984375 156.7859954833984375 156.061004638671875 154.5359954833984375 152.5019989013671875 151.7700042724609375 151.444000244140625 151.2570037841796875 151.0149993896484375 150.8419952392578125 151.042999267578125 150.9199981689453125 152.3650054931640625 151.7830047607421875 149.3379974365234375 149.2960052490234375 148.8509979248046875 148.03900146484375 147.891998291015625 148.042999267578125 148.8690032958984375 -9999 -9999 -9999 -9999 -9999 -9999 -9999 -9999 -9999 -9999 -9999 -9999 -9999 -9999 -9999 -9999 -9999 -9999 -9999 -9999 -9999 -9999 -9999 -9999 -9999 -9999 -9999 -9999 -9999 -9999 -9999 141.912994384765625 141.7969970703125 141.800994873046875 141.7140045166015625 141.6829986572265625 141.4900054931640625 140.832000732421875 141.28900146484375 141.436004638671875 141.147003173828125 140.5570068359375 141.376007080078125 141.4029998779296875 141.3130035400390625 141.2769927978515625 140.423004150390625 140.7760009765625 140.6529998779296875 140.634002685546875 140.61700439453125 140.800994873046875 140.822998046875 141.875 142.4510040283203125 143.3899993896484375 148.2740020751953125 146.72900390625 150.996002197265625 154.2969970703125 154.468994140625 154.1959991455078125 153.787994384765625 -9999 -9999 -9999 -9999 -9999 -9999 -9999 -9999 -9999
-9999 -9999 -9999 -9999 172.75 174.47900390625 174.8730010986328125 172.1219940185546875 169.550994873046875 169.1820068359375 169.3860015869140625 169.3090057373046875 170.529998779296875 171.462005615234375 170.8040008544921875 170.25799560546875 -9999 -9999 -9999 168.6880035400390625 168.61700439453125 169.253997802734375 168.89599609375 171.660003662109375 174.9539947509765625 177.6820068359375 175.0780029296875 172.712005615234375 170.5579986572265625 173.0449981689453125 173.26800537109375 174.5679931640625 173.927001953125 171.0240020751953125 167.4839935302734375 163.0019989013671875 162.1049957275390625 159.6719970703125 157.259002685546875 157.0780029296875 156.91900634765625 159.39599609375 163.3209991455078125 163.3280029296875 163.0019989013671875 161.9730072021484375 160.889007568359375 158.2530059814453125 156.904998779296875 156.4470062255859375 155.9199981689453125 155.3159942626953125 154.0410003662109375 151.4420013427734375 151.397003173828125 151.093994140625 150.802001953125 150.8509979248046875 150.548004150390625 150.5749969482421875 150.860992431640625 152.5030059814453125 149.4219970703125 149.2010040283203125 149.167999267578125 148.6490020751953125 148.0290069580078125 148.136993408203125 148.764007568359375 -9999 -9999 -9999 -9999 -9999 -9999 -9999 -9999 -9999 -9999 -9999 -9999 -9999 -9999 -9999 -9999 -9999 -9999 -9999 -9999 -9999 -9999 -9999 -9999 -9999 -9999 -9999 -9999 -9999 -9999 -9999 141.91900634765625 141.79400634765625 141.876007080078125 141.718994140625 141.748992919921875 141.761993408203125 141.550994873046875 140.628997802734375 140.8260040283203125 140.8939971923828125 141.4149932861328125 141.5290069580078125 141.4019927978515625 141.4160003662109375 141.3379974365234375 140.697998046875 140.1510009765625 140.7010040283203125 140.718994140625 140.238006591796875 140.675994873046875 141.339996337890625 141.5959930419921875 142.3000030517578125 143.8029937744140625 146.4219970703125 148.949005126953125 152.1569976806640625 153.8459930419921875 153.9109954833984375 153.7779998779296875 153.6150054931640625 -9999 -9999 -9999 -9999 -9999 -9999 -9999 -9999 -9999
-9999 -9999 -9999 -9999 171.634002685546875 174.0890045166015625 174.7400054931640625 173.1779937744140625 169.7559967041015625 169.238006591796875 169.4149932861328125 169.4730072021484375 169.9730072021484375 171.0670013427734375 169.548004150390625 169.069000244140625 -9999 -9999 -9999 -9999 170.785003662109375 172.641998291015625 169.595001220703125 169.5919952392578125 172.92999267578125 176.2480010986328125 175.3000030517578125 174.7960052490234375 172.8260040283203125 173.641998291015625 173.2599945068359375 172.0540008544921875 174.50799560546875 173.3979949951171875 171.0489959716796875 166.985992431640625 163.029998779296875 162.2259979248046875 160.4210052490234375 158.576995849609375 157.0160064697265625 157.444000244140625 160.9980010986328125 162.2760009765625 161.990997314453125 162.02099609375 160.561004638671875 158.4510040283203125 157.0489959716796875 156.8730010986328125 156.80999755859375 156.2169952392578125 154.449005126953125 151.613006591796875 151.087005615234375 150.83099365234375 150.485992431640625 150.3509979248046875 150.281005859375 150.292999267578125 150.3209991455078125 149.9109954833984375 149.399993896484375 149.2870025634765625 149.24200439453125 148.6150054931640625 148.2389984130859375 148.3950042724609375 148.375 148.7920074462890625 -9999 -9999 -9999 -9999 -9999 -9999 -9999 -9999 -9999 -9999 -9999 -9999 -9999 -9999 -9999 -9999 -9999 -9999 -9999 -9999 -9999 -9999 -9999 -9999 -9999 -9999 -9999 -9999 -9999 -9999 141.891998291015625 141.92999267578125 141.7899932861328125 141.8350067138671875 141.9109954833984375 141.8329925537109375 141.832000732421875 141.7689971923828125 141.3699951171875 141.634002685546875 141.6660003662109375 141.7039947509765625 141.572998046875 141.3079986572265625 141.0399932861328125 141.1199951171875 141.3589935302734375 141.3419952392578125 141.1660003662109375 140.5579986572265625 140.339996337890625 141.259002685546875 141.337005615234375 142.0879974365234375 -9999 145.99200439453125 148.6999969482421875 151.123992919921875 152.6609954833984375 153.2910003662109375 153.3079986572265625 -9999 -9999 -9999 -9999 -9999 -9999 -9999 -9999 -9999 -9999
-9999 -9999 -9999 -9999 -9999 -9999 -9999 173.1510009765625 170.3910064697265625 169.3289947509765625 169.4210052490234375 170.5399932861328125 171.71099853515625 169.813995361328125 -9999 -9999 -9999 -9999 -9999 -9999 172.8300018310546875 174.3480072021484375 173.2740020751953125 170.3249969482421875 171.4029998779296875 174.555999755859375 175.938995361328125 174.4730072021484375 173.7209930419921875 172.5570068359375 175.212005615234375 173.3419952392578125 172.0529937744140625 174.05999755859375 172.6959991455078125 168.5319976806640625 164.537994384765625 162.675994873046875 163.514007568359375 162.1699981689453125 157.9640045166015625 156.7519989013671875 157.2030029296875 161.761993408203125 161.4969940185546875 161.647003173828125 160.427001953125 158.302001953125 157.3130035400390625 158.0500030517578125 157.149993896484375 156.694000244140625 155.1410064697265625 152.90899658203125 151.4279937744140625 150.6970062255859375 150.376007080078125 150.2230072021484375 150.126007080078125 150.251007080078125 150.2610015869140625 150.4510040283203125 150.1349945068359375 149.444000244140625 149.23699951171875 148.5370025634765625 148.6009979248046875 148.3430023193359375 148.6309967041015625 148.837005615234375 -9999 -9999 -9999 -9999 -9999 -9999 -9999 -9999 -9999 -9999 -9999 -9999 -9999 -9999 -9999 -9999 -9999 -9999 -9999 -9999 -9999 -9999 -9999 -9999 -9999 -9999 -9999 -9999 -9999 -9999 -9999 141.9499969482421875 141.925994873046875 141.7550048828125 141.8179931640625 141.9510040283203125 141.766998291015625 141.774993896484375 141.587005615234375 141.7350006103515625 141.7169952392578125 141.7969970703125 141.5919952392578125 141.4279937744140625 141.53399658203125 141.425994873046875 141.4149932861328125 141.41400146484375 141.1649932861328125 -9999 -9999 -9999 -9999 -9999 -9999 -9999 -9999 -9999 151.8780059814453125 153.251007080078125 153.0829925537109375 -9999 -9999 -9999 -9999 -9999 -9999 -9999 -9999 -9999 -9999
-9999 -9999 -9999 -9999 -9999 -9999 -9999 -9999 171.0879974365234375 169.1269989013671875 169.324005126953125 169.9219970703125 171.7559967041015625 -9999 -9999 -9999 -9999 -9999 -9999 -9999 174.3849945068359375 175.5959930419921875 175.9380035400390625 174.136993408203125 170.7389984130859375 172.287994384765625 176.3480072021484375 175.56500244140625 174.8849945068359375 171.9980010986328125 173.490997314453125 175.9010009765625 174.147003173828125 172.2689971923828125 172.77099609375 169.561004638671875 166.8459930419921875 163.5240020751953125 162.5229949951171875 164.235992431640625 161.3130035400390625 157.2239990234375 156.7599945068359375 158.91900634765625 161.660003662109375 160.871002197265625 159.9210052490234375 158.4949951171875 157.5019989013671875 158.738006591796875 159.1269989013671875 156.6020050048828125 155.61199951171875 154.746002197265625 152.300994873046875 150.6529998779296875 150.188995361328125 150 149.9799957275390625 149.8560028076171875 149.9839935302734375 150.134002685546875 150.1790008544921875 150.3699951171875 149.9429931640625 148.9120025634765625 149.089996337890625 148.802001953125 148.6100006103515625 148.9810028076171875 148.4759979248046875 147.772003173828125 -9999 -9999 -9999 -9999 -9999 -9999 -9999 -9999 -9999 -9999 -9999 -9999 -9999 -9999 -9999 -9999 -9999 -9999 -9999 -9999 -9999 -9999 -9999 -9999 -9999 -9999 -9999 -9999 -9999 141.83099365234375 141.8800048828125 141.8459930419921875 141.6139984130859375 141.91400146484375 141.837005615234375 141.6719970703125 141.84100341796875 141.75799560546875 141.740997314453125 141.7180023193359375 141.6920013427734375 141.5630035400390625 141.4839935302734375 141.5279998779296875 141.4629974365234375 -9999 -9999 -9999 -9999 -9999 -9999 -9999 -9999 -9999 -9999 -9999 150.641998291015625 152.91400146484375 152.94500732421875 -9999 -9999 -9999 -9999 -9999 -9999 -9999 -9999 -9999 -9999
-9999 -9999 -9999 -9999 -9999 -9999 -9999 -9999 -9999 169.1519927978515625 169.3329925537109375 169.83099365234375 -9999 -9999 -9999 -9999 -9999 -9999 -9999 -9999 175.6360015869140625 176.962005615234375 178.2030029296875 175.292999267578125 173.0590057373046875 170.787994384765625 173.3800048828125 175.610992431640625 174.9730072021484375 173.134002685546875 171.8679962158203125 175.0189971923828125 176.1049957275390625 172.7259979248046875 171.3860015869140625 170.15899658203125 168.00799560546875 165.6880035400390625 164.985992431640625 162.9239959716796875 162.3800048828125 159.9369964599609375 156.8480072021484375 156.8769989013671875 160.7010040283203125 160.71099853515625 160.4409942626953125 158.14599609375 158.4420013427734375 159.199005126953125 159.102996826171875 157.07000732421875 155.3480072021484375 154.873992919921875 153.65899658203125 150.572998046875 150.28399658203125 149.9499969482421875 149.7440032958984375 149.7859954833984375 149.9160003662109375 149.9550018310546875 150.0269927978515625 149.9019927978515625 149.871002197265625 149.3209991455078125 149.167999267578125 149.266998291015625 148.91900634765625 148.6580047607421875 148.1829986572265625 147.8520050048828125 147.173004150390625 -9999 -9999 -9999 -9999 -9999 -9999 -9999 -9999 -9999 -9999 -9999 -9999 -9999 -9999 -9999 -9999 -9999 -9999 -9999 -9999 -9999 -9999 -9999 -9999 -9999 -9999 -9999 -9999 -9999 141.8849945068359375 141.75 141.873992919921875 141.8379974365234375 141.798004150390625 141.8209991455078125 141.9250030517578125 -9999 -9999 -9999 -9999 -9999 -9999 -9999 -9999 -9999 -9999 -9999 -9999 -9999 -9999 -9999 -9999 -9999 -9999 -9999 -9999 153.22900390625 155.238006591796875 -9999 -9999 -9999 -9999 -9999 -9999 -9999 -9999 -9999 -9999
-9999 -9999 -9999 -9999 -9999 -9999 -9999 -9999 -9999 -9999 -9999 -9999 -9999 -9999 -9999 -9999 -9999 -9999 -9999 -9999 175.9969940185546875 178.7180023193359375 178.4250030517578125 175.0319976806640625 175.36199951171875 171.54400634765625 170.7469940185546875 173.23199462890625 174.5469970703125 174.9210052490234375 173.201995849609375 171.300994873046875 176.0260009765625 174.686004638671875 171.1909942626953125 170.177001953125 168.7440032958984375 167.61199951171875 166.6790008544921875 165.4170074462890625 161.3520050048828125 160.46600341796875 157.457000732421875 156.5789947509765625 157.673004150390625 159.759002685546875 159.701995849609375 158.529998779296875 158.3070068359375 159.3549957275390625 159.535003662109375 158.0529937744140625 155.9759979248046875 155.350006103515625 154.6779937744140625 151.5050048828125 150.313995361328125 149.89599609375 149.5980072021484375 149.6009979248046875 149.697998046875 150.0330047607421875 150.0460052490234375 149.7859954833984375 149.48699951171875 149.485992431640625 149.4019927978515625 149.5890045166015625 149.3520050048828125 148.800994873046875 148.134002685546875 147.7610015869140625 147.3509979248046875 -9999 -9999 -9999 -9999 -9999 -9999 -9999 -9999 -9999 -9999 -9999 -9999 -9999 -9999 -9999 -9999 -9999 -9999 -9999 -9999 -9999 -9999 -9999 -9999 -9999 -9999 -9999 -9999 -9999 -9999 141.8589935302734375 141.837005615234375 141.7920074462890625 141.822998046875 141.8690032958984375 -9999 -9999 -9999 -9999 -9999 -9999 -9999 -9999 -9999 -9999 -9999 -9999 -9999 -9999 -9999 -9999 -9999 -9999 -9999 -9999 -9999 -9999 -9999 -9999 -9999 -9999 -9999 -9999 -9999 -9999 -9999 -9999 -9999
-9999 -9999 -9999 -9999 -9999 -9999 -9999 -9999 -9999 -9999 -9999 -9999 -9999 -9999 -9999 -9999 -9999 -9999 -9999 -9999 176.2180023193359375 179.156005859375 179.5050048828125 176.6609954833984375 178.1089935302734375 175.08099365234375 171.5720062255859375 170.3350067138671875 173.1510009765625 174.0290069580078125 174.4550018310546875 171.5720062255859375 172.3719940185546875 174.7400054931640625 173.261993408203125 171.2910003662109375 168.373992919921875 168.199005126953125 167.6750030517578125 166.6519927978515625 161.9589996337890625 159.6970062255859375 158.0540008544921875 156.52099609375 156.302001953125 157.99200439453125 159.6199951171875 158.6779937744140625 158.218994140625 158.9040069580078125 160.4170074462890625 158.128997802734375 156.7649993896484375 155.6529998779296875 153.218994140625 152.4160003662109375 150.6269989013671875 149.9589996337890625 149.813995361328125 149.5980072021484375 149.9600067138671875 149.8379974365234375 149.9329986572265625 149.7140045166015625 149.5930023193359375 149.4839935302734375 149.4730072021484375 149.753997802734375 149.11199951171875 149.2649993896484375 148.4980010986328125 147.9770050048828125 147.2760009765625 147.8650054931640625 -9999 -9999 -9999 -9999 -9999 -9999 -9999 -9999 -9999 -9999 -9999 -9999 -9999 -9999 -9999 -9999 -9999 -9999 -9999 -9999 -9999 -9999 -9999 -9999 -9999 -9999 -9999 -9999 -9999 141.8489990234375 141.860992431640625 141.7400054931640625 141.8480072021484375 141.7729949951171875 -9999 -9999 -9999 -9999 -9999 -9999 -9999 -9999 -9999 -9999 -9999 -9999 -9999 -9999 -9999 -9999 -9999 -9999 -9999 -9999 -9999 -9999 -9999 -9999 -9999 -9999 -9999 -9999 -9999 -9999 -9999 -9999 -9999
-9999 -9999 -9999 -9999 -9999 -9999 -9999 -9999 -9999 -9999 -9999 -9999 -9999 -9999 -9999 -9999 -9999 -9999 -9999 -9999 177.485992431640625 180.23199462890625 180.1020050048828125 179.360992431640625 179.78399658203125 178.1190032958984375 174.5420074462890625 170.8040008544921875 170.4579925537109375 172.699005126953125 173.09100341796875 173.1199951171875 170.5919952392578125 172.0269927978515625 172.5149993896484375 172.5670013427734375 170.0050048828125 167.1060028076171875 167.5590057373046875 166.610992431640625 162.863006591796875 160.214996337890625 159.550994873046875 156.5370025634765625 155.7689971923828125 155.824005126953125 159.0829925537109375 160.0970001220703125 158.4629974365234375 158.39300537109375 159.9669952392578125 158.03399658203125 155.7480010986328125 154.352996826171875 153.102996826171875 152.8769989013671875 151.675994873046875 150.16400146484375 149.6179962158203125 149.319000244140625 149.51800537109375 149.60699462890625 149.843994140625 149.7859954833984375 149.6190032958984375 149.6139984130859375 149.4730072021484375 149.7449951171875 149.0469970703125 149.0980072021484375 148.75799560546875 148.162994384765625 147.001007080078125 147.2760009765625 -9999 -9999 -9999 -9999 -9999 -9999 -9999 -9999 -9999 -9999 -9999 -9999 -9999 -9999 -9999 -9999 -9999 -9999 -9999 -9999 -9999 -9999 -9999 -9999 -9999 -9999 -9999 -9999 -9999 -9999 -9999 -9999 -9999 -9999 -9999 -9999 -9999 -9999 -9999 -9999 -9999 -9999 -9999 -9999 -9999 -9999 -9999 -9999 -9999 -9999 -9999 -9999 -9999 -9999 -9999 -9999 -9999 -9999 -9999 -9999 -9999 -9999 -9999 -9999 -9999 -9999 -9999
-9999 -9999 -9999 -9999 -9999 -9999 -9999 -9999 -9999 -9999 -9999 -9999 -9999 -9999 -9999 -9999 -9999 -9999 -9999 -9999 176.930999755859375 178.5970001220703125 180.2740020751953125 179.5930023193359375 179.048004150390625 178.975006103515625 176.4019927978515625 172.5330047607421875 169.3430023193359375 169.8249969482421875 171.85699462890625 172.2339935302734375 171.8300018310546875 170.552001953125 171.805999755859375 172.13800048828125 172.7550048828125 168.9579925537109375 166.05999755859375 165.5059967041015625 164.8849945068359375 160.5240020751953125 159.824005126953125 158.3979949951171875 155.8990020751953125 155.6529998779296875 156.5 158.71600341796875 158.7209930419921875 157.8090057373046875 158.5269927978515625 157.8419952392578125 155.33599853515625 153.5019989013671875 152.6929931640625 152.4799957275390625 151.6779937744140625 150.78900146484375 149.843994140625 149.3910064697265625 149.2859954833984375 149.3260040283203125 149.4029998779296875 149.6649932861328125 149.58599853515625 149.514007568359375 149.3459930419921875 149.32000732421875 149.16400146484375 149.537994384765625 148.78399658203125 147.850006103515625 147.3699951171875 147.40899658203125 -9999 -9999 -9999 -9999 -9999 -9999 -9999 -9999 -9999 -9999 -9999 -9999 -9999 -9999 -9999 -9999 -9999 -9999 -9999 -9999 -9999 -9999 -9999 -9999 -9999 -9999 -9999 -9999 -9999 -9999 -9999 -9999 -9999 -9999 -9999 -9999 -9999 -9999 -9999 -9999 -9999 -9999 -9999 -9999 -9999 -9999 -9999 -9999 -9999 -9999 -9999 -9999 -9999 -9999 -9999 -9999 -9999 -9999 -9999 -9999 -9999 -9999 -9999 -9999 -9999 -9999 -9999
-9999 -9999 -9999 -9999 -9999 -9999 -9999 -9999 -9999 -9999 -9999 -9999 -9999 -9999 -9999 -9999 -9999 -9999 -9999 -9999 175.7270050048828125 179.0529937744140625 179.2389984130859375 180.326995849609375 179.3950042724609375 178.886993408203125 177.9980010986328125 175.4499969482421875 171.751007080078125 168.9409942626953125 169.2010040283203125 171.1790008544921875 172.9949951171875 172.042999267578125 171.05499267578125 170.5240020751953125 171.2830047607421875 169.535003662109375 167.7239990234375 164.7530059814453125 164.391998291015625 162.406005859375 159.5290069580078125 157.8480072021484375 156.53900146484375 155.3979949951171875 156.38800048828125 157.4199981689453125 158.1569976806640625 158.3800048828125 156.7870025634765625 156.324005126953125 154.410003662109375 152.6139984130859375 151.0659942626953125 151.009002685546875 150.5099945068359375 150.123992919921875 149.985992431640625 149.5540008544921875 149.1479949951171875 149.1179962158203125 149.2310028076171875 149.4459991455078125 149.593994140625 149.910003662109375 -9999 149.10699462890625 149.009002685546875 148.7570037841796875 148.457000732421875 147.9579925537109375 148.1779937744140625 148.647003173828125 149.9320068359375 -9999 -9999 -9999 -9999 -9999 -9999 -9999 -9999 -9999 -9999 -9999 -9999 -9999 -9999 -9999 -9999 -9999 -9999 -9999 -9999 -9999 -9999 -9999 -9999 -9999 -9999 -9999 -9999 -9999 -9999 -9999 -9999 -9999 -9999 -9999 -9999 -9999 -9999 -9999 -9999 -9999 -9999 -9999 -9999 -9999 -9999 -9999 -9999 -9999 -9999 -9999 -9999 -9999 -9999 -9999 -9999 -9999 -9999 -9999 -9999 -9999 -9999 -9999 -9999 -9999 -9999
-9999 -9999 -9999 -9999 -9999 -9999 -9999 -9999 -9999 -9999 -9999 -9999 -9999 -9999 -9999 -9999 -9999 -9999 -9999 -9999 -9999 -9999 178.6179962158203125 179.697998046875 179.51300048828125 178.110992431640625 178.42999267578125 177.9940032958984375 175.246002197265625 170.67999267578125 168.59100341796875 169.6920013427734375 171.748992919921875 172.365997314453125 171.873992919921875 169.7079925537109375 169.93499755859375 168.772003173828125 167.6060028076171875 167.4770050048828125 163.281005859375 161.5099945068359375 159.91900634765625 156.287994384765625 155.9949951171875 154.449005126953125 155.2100067138671875 156.016998291015625 158.4539947509765625 159.061004638671875 157.26300048828125 153.93499755859375 151.996002197265625 151.225006103515625 150.673004150390625 150.4770050048828125 150.1959991455078125 149.9329986572265625 149.8329925537109375 149.550994873046875 149.253997802734375 148.98199462890625 149.0399932861328125 149.0780029296875 149.376007080078125 149.5149993896484375 -9999 -9999 -9999 -9999 -9999 -9999 -9999 148.8899993896484375 150.2140045166015625 -9999 -9999 -9999 -9999 -9999 -9999 -9999 -9999 -9999 -9999 -9999 -9999 -9999 -9999 -9999 -9999 -9999 -9999 -9999 -9999 -9999 -9999 -9999 -9999 -9999 -9999 -9999 -9999 -9999 -9999 -9999 -9999 -9999 -9999 -9999 -9999 -9999 -9999 -9999 -9999 -9999 -9999 -9999 -9999 -9999 -9999 -9999 -9999 -9999 -9999 -9999 -9999 -9999 -9999 -9999 -9999 -9999 -9999 -9999 -9999 -9999 -9999 -9999 -9999 -9999 -9999
-9999 -9999 -9999 -9999 -9999 -9999 -9999 -9999 -9999 -9999 -9999 -9999 -9999 -9999 -9999 -9999 -9999 -9999 -9999 -9999 -9999 -9999 178.0989990234375 178.8520050048828125 178.95599365234375 178.2100067138671875 177.35400390625 178.2689971923828125 177.2400054931640625 172.99200439453125 169.0989990234375 168.6150054931640625 170.947998046875 171.6309967041015625 173.26300048828125 170.88800048828125 168.5619964599609375 168.0839996337890625 168.0469970703125 168.0330047607421875 166.906005859375 161.5570068359375 157.2910003662109375 155.54400634765625 154.8459930419921875 154.251007080078125 154.0050048828125 154.27099609375 156.6349945068359375 157.425994873046875 153.970001220703125 152.7610015869140625 151.735992431640625 150.63800048828125 150.2729949951171875 149.983001708984375 149.718994140625 149.483001708984375 149.360992431640625 149.2050018310546875 149.10400390625 149.0359954833984375 148.98699951171875 148.9499969482421875 149.09100341796875 149.4759979248046875 -9999 -9999 -9999 -9999 -9999 -9999 -9999 -9999 -9999 -9999 -9999 -9999 -9999 -9999 -9999 -9999 -9999 -9999 -9999 -9999 -9999 -9999 -9999 -9999 -9999 -9999 -9999 -9999 -9999 -9999 -9999 -9999 -9999 -9999 -9999 -9999 -9999 -9999 -9999 -9999 -9999 -9999 -9999 -9999 -9999 -9999 -9999 -9999 -9999 -9999 -9999 -9999 -9999 -9999 -9999 -9999 -9999 -9999 -9999 -9999 -9999 -9999 -9999 -9999 -9999 -9999 -9999 -9999 -9999 -9999 -9999 -9999 -9999 -9999 -9999
-9999 -9999 -9999 -9999 -9999 -9999 -9999 -9999 -9999 -9999 -9999 -9999 -9999 -9999 -9999 -9999 -9999 -9999 -9999 -9999 -9999 -9999 -9999 177.636993408203125 178.86199951171875 178.1190032958984375 176.912994384765625 176.98199462890625 176.8170013427734375 175.180999755859375 172.358001708984375 168.7769927978515625 168.8079986572265625 170.4839935302734375 171.930999755859375 171.404998779296875 168.5160064697265625 166.51300048828125 166.4080047607421875 167.3289947509765625 166.4940032958984375 161.996002197265625 157.8329925537109375 155.2689971923828125 154.17999267578125 153.587005615234375 153.9429931640625 154.03399658203125 154.9720001220703125 155.5800018310546875 152.944000244140625 152.2819976806640625 151.16900634765625 150.6410064697265625 150.3809967041015625 149.727996826171875 149.1450042724609375 149.141998291015625 149.1869964599609375 149.05499267578125 148.552001953125 148.9969940185546875 148.8179931640625 148.884002685546875 148.822998046875 149.3560028076171875 -9999 -9999 -9999 -9999 -9999 -9999 -9999 -9999 -9999 -9999 -9999 -9999 -9999 -9999 -9999 -9999 -9999 -9999 -9999 -9999 -9999 -9999 -9999 -9999 -9999 -9999 -9999 -9999 -9999 -9999 -9999 -9999 -9999 -9999 -9999 -9999 -9999 -9999 -9999 -9999 -9999 -9999 -9999 -9999 -9999 -9999 -9999 -9999 -9999 -9999 -9999 -9999 -9999 -9999 -9999 -9999 -9999 -9999 -9999 -9999 -9999 -9999 -9999 -9999 -9999 -9999 -9999 -9999 -9999 -9999 -9999 -9999 -9999 -9999 -9999
-9999 -9999 -9999 -9999 -9999 -9999 -9999 -9999 -9999 -9999 -9999 -9999 -9999 -9999 -9999 -9999 -9999 -9999 -9999 -9999 -9999 -9999 -9999 -9999 178.7350006103515625 178.9239959716796875 178.0099945068359375 176.4069976806640625 175.9929962158203125 175.6750030517578125 175.32000732421875 170.667999267578125 168.5 169.8249969482421875 170.8650054931640625 171.194000244140625 170.322998046875 166.33099365234375 165.701995849609375 165.7079925537109375 165.7010040283203125 161.4429931640625 156.207000732421875 154.8459930419921875 153.7400054931640625 153.2140045166015625 154.0059967041015625 155.5489959716796875 155.21099853515625 155.6349945068359375 154.66900634765625 152.7050018310546875 151.8489990234375 151.3899993896484375 150.936004638671875 149.98699951171875 149.850006103515625 149.9730072021484375 149.5749969482421875 149.5050048828125 148.9429931640625 148.766998291015625 148.7689971923828125 148.5720062255859375 148.438995361328125 148.5760040283203125 148.871002197265625 -9999 -9999 -9999 -9999 -9999 -9999 -9999 -9999 -9999 -9999 -9999 -9999 -9999 -9999 -9999 -9999 -9999 -9999 -9999 -9999 -9999 -9999 -9999 -9999 -9999 -9999 -9999 -9999 -9999 -9999 -9999 -9999 -9999 -9999 -9999 -9999 -9999 -9999 -9999 -9999 -9999 -9999 -9999 -9999 -9999 -9999 -9999 -9999 -9999 -9999 -9999 -9999 -9999 -9999 -9999 -9999 -9999 -9999 -9999 -9999 -9999 -9999 -9999 -9999 -9999 -9999 -9999 -9999 -9999 -9999 -9999 -9999 -9999 -9999
-9999 -9999 -9999 -9999 -9999 -9999 -9999 -9999 -9999 -9999 -9999 -9999 -9999 -9999 -9999 -9999 -9999 -9999 -9999 -9999 -9999 -9999 -9999 -9999 -9999 178.9850006103515625 178.375 177.912994384765625 176.01800537109375 176.6880035400390625 176.582000732421875 173.4739990234375 169.28900146484375 168.9510040283203125 170.4149932861328125 170.444000244140625 170.4109954833984375 167.727996826171875 165.253997802734375 163.865997314453125 162.764007568359375 159.75799560546875 155.7790069580078125 154.8800048828125 153.7429962158203125 153.2790069580078125 153.733001708984375 155.4239959716796875 155.8350067138671875 155.865997314453125 156.680999755859375 153.944000244140625 152.6959991455078125 151.9160003662109375 151.22900390625 150.746002197265625 151.177001953125 150.6060028076171875 150.61199951171875 150.1450042724609375 149.76800537109375 149.3769989013671875 149.1970062255859375 148.72900390625 148.376007080078125 148.444000244140625 148.1519927978515625 148.3560028076171875 -9999 -9999 -9999 -9999 -9999 -9999 -9999 -9999 -9999 -9999 -9999 -9999 -9999 -9999 -9999 -9999 -9999 -9999 -9999 -9999 -9999 -9999 -9999 -9999 -9999 -9999 -9999 -9999 -9999 -9999 -9999 -9999 -9999 -9999 -9999 -9999 -9999 -9999 -9999 -9999 -9999 -9999 -9999 -9999 -9999 -9999 -9999 -9999 -9999 -9999 -9999 -9999 -9999 -9999 -9999 -9999 -9999 -9999 -9999 -9999 -9999 -9999 -9999 -9999 -9999 -9999 -9999 -9999 -9999 -9999 -9999 -9999 -9999
-9999 -9999 -9999 -9999 -9999 -9999 -9999 -9999 -9999 -9999 -9999 -9999 -9999 -9999 -9999 -9999 -9999 -9999 -9999 -9999 -9999 -9999 -9999 -9999 -9999 -9999 -9999 177.850006103515625 176.2570037841796875 175.9170074462890625 176.45599365234375 173.8390045166015625 172.496002197265625 167.8939971923828125 169.1139984130859375 169.7760009765625 167.876007080078125 167.3079986572265625 165.100006103515625 162.7610015869140625 160.5290069580078125 158.873992919921875 156.71099853515625 155.28399658203125 154.0579986572265625 152.9329986572265625 152.9949951171875 153.2769927978515625 154.0260009765625 154.654998779296875 156.5780029296875 156.4980010986328125 153.22900390625 151.7649993896484375 151.3070068359375 151.9530029296875 151.9589996337890625 151.126007080078125 150.951995849609375 150.4730072021484375 150.0240020751953125 149.430999755859375 149.3130035400390625 148.9239959716796875 148.5160064697265625 148.5500030517578125 148.1439971923828125 148.2530059814453125 148.2100067138671875 -9999 -9999 -9999 -9999 -9999 -9999 -9999 -9999 -9999 -9999 -9999 -9999 -9999 -9999 -9999 -9999 -9999 -9999 -9999 -9999 -9999 -9999 -9999 -9999 -9999 -9999 -9999 -9999 -9999 -9999 -9999 -9999 -9999 -9999 -9999 -9999 -9999 -9999 -9999 -9999 -9999 -9999 -9999 -9999 -9999 -9999 -9999 -9999 -9999 -9999 -9999 -9999 -9999 -9999 -9999 -9999 -9999 -9999 -9999 -9999 -9999 -9999 -9999 -9999 -9999 -9999 -9999 -9999 -9999 -9999 -9999 -9999
-9999 -9999 -9999 -9999 -9999 -9999 -9999 -9999 -9999 -9999 -9999 -9999 -9999 -9999 -9999 -9999 -9999 -9999 -9999 -9999 -9999 -9999 -9999 -9999 -9999 -9999 -9999 177.5460052490234375 176.7689971923828125 176.35699462890625 175.595001220703125 174.2039947509765625 175.417999267578125 170.233001708984375 167.074005126953125 167.6510009765625 166.912994384765625 166.266998291015625 166.2039947509765625 164.3249969482421875 161.0800018310546875 159.501007080078125 157.3119964599609375 156.11199951171875 154.4940032958984375 153.162994384765625 152.4040069580078125 152.7209930419921875 152.8769989013671875 155.0110015869140625 153.470001220703125 157.5449981689453125 153.944000244140625 151.5590057373046875 151.7440032958984375 153.2089996337890625 153.32000732421875 152.4219970703125 152.2129974365234375 150.8990020751953125 150.751007080078125 150.787994384765625 149.4329986572265625 148.8419952392578125 148.7220001220703125 148.5749969482421875 148.36199951171875 148.57000732421875 148.2180023193359375 148.281005859375 -9999 -9999 -9999 -9999 -9999 -9999 -9999 -9999 -9999 -9999 -9999 -9999 -9999 -9999 -9999 -9999 -9999 -9999 -9999 -9999 -9999 -9999 -9999 -9999 -9999 -9999 -9999 -9999 -9999 -9999 -9999 -9999 -9999 -9999 -9999 -9999 -9999 -9999 -9999 -9999 -9999 -9999 -9999 -9999 -9999 -9999 -9999 -9999 -9999 -9999 -9999 -9999 -9999 -9999 -9999 -9999 -9999 -9999 -9999 -9999 -9999 -9999 -9999 -9999 -9999 -9999 -9999 -9999 -9999 -9999 -9999
-9999 -9999 -9999 -9999 -9999 -9999 -9999 -9999 -9999 -9999 -9999 -9999 -9999 -9999 -9999 -9999 -9999 -9999 -9999 -9999 -9999 -9999 -9999 -9999 -9999 -9999 -9999 -9999 176.4770050048828125 175.4069976806640625 176.0959930419921875 175.1710052490234375 176.3820037841796875 174.9600067138671875 169.199005126953125 165.5800018310546875 165.7089996337890625 166.037994384765625 165.9770050048828125 166.5099945068359375 164.2169952392578125 160.8339996337890625 159.214996337890625 157.5590057373046875 154.927001953125 153.30999755859375 152.759002685546875 152.246002197265625 152.3820037841796875 152.423004150390625 152.13800048828125 152.4369964599609375 152.9940032958984375 151.5789947509765625 153.6410064697265625 153.639007568359375 154.0469970703125 153.753997802734375 153.5670013427734375 153.1519927978515625 150.8480072021484375 150.235992431640625 149.6230010986328125 148.8029937744140625 148.7610015869140625 148.48199462890625 148.4329986572265625 148.391998291015625 148.4550018310546875 148.188995361328125 148.311004638671875 -9999 -9999 -9999 -9999 -9999 -9999 -9999 -9999 -9999 -9999 -9999 -9999 -9999 -9999 -9999 -9999 -9999 -9999 -9999 -9999 -9999 -9999 -9999 -9999 -9999 -9999 -9999 -9999 -9999 -9999 -9999 -9999 -9999 -9999 -9999 -9999 -9999 -9999 -9999 -9999 -9999 -9999 -9999 -9999 -9999 -9999 -9999 -9999 -9999 -9999 -9999 -9999 -9999 -9999 -9999 -9999 -9999 -9999 -9999 -9999 -9999 -9999 -9999 -9999 -9999 -9999 -9999 -9999 -9999 -9999
-9999 -9999 -9999 -9999 -9999 -9999 -9999 -9999 -9999 -9999 -9999 -9999 -9999 -9999 -9999 -9999 -9999 -9999 -9999 -9999 -9999 -9999 -9999 -9999 -9999 -9999 -9999 -9999 -9999 -9999 177.055999755859375 176.3280029296875 175.7570037841796875 174.4019927978515625 171.4730072021484375 166.3780059814453125 164.67999267578125 164.7169952392578125 164.91900634765625 167.3179931640625 166.83099365234375 164.285003662109375 162.9250030517578125 161.0570068359375 157.48199462890625 154.555999755859375 152.897003173828125 152.548004150390625 152.391998291015625 151.8699951171875 151.7729949951171875 151.805999755859375 151.537994384765625 151.98699951171875 154.00799560546875 153.824005126953125 154.5970001220703125 154.4320068359375 154.990997314453125 152.774993896484375 150.964996337890625 150.063995361328125 149.1779937744140625 149.218994140625 149.0890045166015625 148.8419952392578125 148.6139984130859375 148.5279998779296875 148.5279998779296875 148.1569976806640625 148.332000732421875 -9999 -9999 -9999 -9999 -9999 -9999 -9999 -9999 -9999 -9999 -9999 -9999 -9999 -9999 -9999 -9999 -9999 -9999 -9999 -9999 -9999 -9999 -9999 -9999 -9999 -9999 -9999 -9999 -9999 -9999 -9999 -9999 -9999 -9999 -9999 -9999 -9999 -9999 -9999 -9999 -9999 -9999 -9999 -9999 -9999 -9999 -9999 -9999 -9999 -9999 -9999 -9999 -9999 -9999 -9999 -9999 -9999 -9999 -9999 -9999 -9999 -9999 -9999 -9999 -9999 -9999 -9999 -9999 -9999 -9999
-9999 -9999 -9999 -9999 -9999 -9999 -9999 -9999 -9999 -9999 -9999 -9999 -9999 -9999 -9999 -9999 -9999 -9999 -9999 -9999 -9999 -9999 -9999 -9999 -9999 -9999 -9999 -9999 -9999 -9999 -9999 175.7389984130859375 174.4739990234375 172.73199462890625 173.06500244140625 170.7570037841796875 165.98199462890625 164.3170013427734375 164.311004638671875 165.5 165.9420013427734375 164.4320068359375 -9999 162.0399932861328125 159.5959930419921875 157.417999267578125 155.2100067138671875 154.4640045166015625 153.550994873046875 152.4420013427734375 152.0469970703125 151.8489990234375 152.0420074462890625 152.735992431640625 155.0970001220703125 153.7649993896484375 155.2910003662109375 155.313995361328125 154.128997802734375 151.60400390625 150.904998779296875 149.8280029296875 149.8379974365234375 149.9940032958984375 149.8849945068359375 149.6089935302734375 148.8329925537109375 148.6739959716796875 148.824005126953125 148.33599853515625 -9999 -9999 -9999 -9999 -9999 -9999 -9999 -9999 -9999 -9999 -9999 -9999 -9999 -9999 -9999 -9999 -9999 -9999 -9999 -9999 -9999 -9999 -9999 -9999 -9999 -9999 -9999 -9999 -9999 -9999 -9999 -9999 -9999 -9999 -9999 -9999 -9999 -9999 -9999 -9999 -9999 -9999 -9999 -9999 -9999 -9999 -9999 -9999 -9999 -9999 -9999 -9999 -9999 -9999 -9999 -9999 -9999 -9999 -9999 -9999 -9999 -9999 -9999 -9999 -9999 -9999 -9999 -9999 -9999 -9999 -9999
-9999 -9999 -9999 -9999 -9999 -9999 -9999 -9999 -9999 -9999 -9999 -9999 -9999 -9999 -9999 -9999 -9999 -9999 -9999 -9999 -9999 -9999 -9999 -9999 -9999 -9999 -9999 -9999 -9999 -9999 -9999 173.563995361328125 173.51300048828125 172.2050018310546875 171.1280059814453125 170.649993896484375 168.3470001220703125 166.91400146484375 164.2100067138671875 -9999 -9999 -9999 -9999 -9999 163.125 160.8159942626953125 159.363006591796875 156.108001708984375 153.6840057373046875 152.475006103515625 152.186004638671875 152.201995849609375 152.2960052490234375 152.3860015869140625 154.173004150390625 153.052001953125 153.475006103515625 154.7429962158203125 152.86199951171875 151.6139984130859375 150.9550018310546875 150.0879974365234375 150.3699951171875 150.625 150.522003173828125 150.016998291015625 149.3950042724609375 148.79400634765625 149.2050018310546875 -9999 -9999 -9999 -9999 -9999 -9999 -9999 -9999 -9999 -9999 -9999 -9999 -9999 -9999 -9999 -9999 -9999 -9999 -9999 -9999 -9999 -9999 -9999 -9999 -9999 -9999 -9999 -9999 -9999 -9999 -9999 -9999 -9999 -9999 -9999 -9999 -9999 -9999 -9999 -9999 -9999 -9999 -9999 -9999 -9999 -9999 -9999 -9999 -9999 -9999 -9999 -9999 -9999 -9999 -9999 -9999 -9999 -9999 -9999 -9999 -9999 -9999 -9999 -9999 -9999 -9999 -9999 -9999 -9999 -9999 -9999 -9999
