ncols        141
nrows        37
xllcorner    356256
yllcorner    6858480
cellsize     16.000000000000
NODATA_value  -9999
-9999 -9999 -9999 -9999 -9999 -9999 -9999 -9999 -9999 -9999 -9999 -9999 -9999 -9999 -9999 -9999 -9999 153.4624786376953125 154.66717529296875 152.2130584716796875 147.9089813232421875 149.525421142578125 153.6026153564453125 154.345611572265625 155.1855621337890625 157.1584014892578125 159.3874359130859375 159.74993896484375 159.6535491943359375 160.0161590576171875 160.276611328125 159.0583648681640625 154.7866363525390625 152.419219970703125 151.6222381591796875 151.4925384521484375 151.3437652587890625 151.3515167236328125 151.0123138427734375 150.22467041015625 149.7163543701171875 149.30657958984375 148.8229522705078125 148.4623260498046875 148.1006927490234375 147.4555206298828125 146.2311859130859375 144.5254669189453125 143.0147552490234375 142.4286041259765625 141.7443389892578125 141.4072723388671875 141.47711181640625 141.700531005859375 141.8677520751953125 141.960906982421875 142.0309906005859375 142.0557098388671875 142.096405029296875 142.1615142822265625 142.3333892822265625 142.47589111328125 142.574493408203125 142.688934326171875 142.6739349365234375 142.68023681640625 142.6925811767578125 142.7089385986328125 142.73150634765625 142.73785400390625 142.769622802734375 142.7807159423828125 142.78851318359375 142.8042449951171875 142.9112091064453125 143.562591552734375 144.5937347412109375 145.2181549072265625 145.687957763671875 145.811798095703125 144.94842529296875 145.03564453125 145.6559600830078125 146.83544921875 148.23980712890625 148.8546905517578125 149.167083740234375 150.21392822265625 151.8397979736328125 152.164215087890625 152.8461761474609375 153.3976898193359375 153.7835235595703125 154.271820068359375 155.5276336669921875 156.0272369384765625 156.3095245361328125 157.3107757568359375 158.9494781494140625 159.7487335205078125 158.751922607421875 157.1109161376953125 159.4753265380859375 166.66925048828125 167.2100982666015625 167.326751708984375 166.3990020751953125 162.85284423828125 161.55377197265625 164.338897705078125 164.39202880859375 161.78643798828125 161.682891845703125 162.884918212890625 164.3889007568359375 166.910980224609375 171.721771240234375 174.7193145751953125 174.454254150390625 174.0955810546875 176.5917816162109375 178.901885986328125 178.3233795166015625 177.584259033203125 177.442169189453125 -9999 -9999 -9999 -9999 -9999 -9999 -9999 -9999 -9999 -9999 -9999 -9999 -9999 -9999 -9999 -9999
-9999 -9999 -9999 -9999 -9999 -9999 -9999 -9999 -9999 -9999 -9999 -9999 -9999 -9999 -9999 -9999 -9999 152.0462799072265625 150.69769287109375 148.00244140625 148.2217254638671875 151.311309814453125 154.1697235107421875 154.51654052734375 156.0534515380859375 159.1388092041015625 161.9992828369140625 162.20721435546875 161.3323822021484375 161.058319091796875 159.94488525390625 158.071868896484375 154.3599853515625 152.5220794677734375 151.81695556640625 151.439849853515625 151.285308837890625 151.0419464111328125 150.705078125 150.4517059326171875 149.94866943359375 149.4437255859375 149.022308349609375 148.5478515625 148.245269775390625 147.8285369873046875 146.7746429443359375 145.210052490234375 143.4455413818359375 142.7918701171875 142.0084075927734375 141.4979705810546875 141.404541015625 141.6305389404296875 141.8339996337890625 141.9384307861328125 141.9941864013671875 142.0438079833984375 142.0531463623046875 142.1267547607421875 142.212677001953125 142.3249053955078125 142.46209716796875 142.547149658203125 142.5754547119140625 142.5490570068359375 142.555450439453125 142.5562286376953125 142.6042633056640625 142.6053466796875 142.596923828125 142.6043701171875 142.5778045654296875 142.690093994140625 142.8551025390625 143.2135162353515625 143.846923828125 144.6660919189453125 145.295135498046875 145.4090576171875 144.620452880859375 144.615325927734375 144.8679962158203125 146.1216888427734375 147.057708740234375 148.0405731201171875 148.8101959228515625 150.094451904296875 151.4619903564453125 152.1003265380859375 152.669036865234375 153.5912017822265625 154.314117431640625 154.86669921875 155.305877685546875 155.921539306640625 156.564544677734375 157.8951263427734375 160.474090576171875 162.5099334716796875 160.35394287109375 157.7873382568359375 159.28253173828125 167.9862213134765625 168.796142578125 169.235198974609375 167.080535888671875 162.610931396484375 161.9160308837890625 165.4472503662109375 166.95196533203125 165.0682220458984375 162.97021484375 164.473663330078125 167.61834716796875 170.94390869140625 176.1375274658203125 177.557952880859375 177.3936309814453125 174.46240234375 173.868896484375 177.5411529541015625 177.48712158203125 177.1217193603515625 176.5351104736328125 178.34735107421875 -9999 -9999 -9999 -9999 -9999 -9999 -9999 -9999 -9999 -9999 -9999 -9999 -9999 -9999 -9999
-9999 -9999 -9999 -9999 -9999 -9999 -9999 -9999 -9999 -9999 -9999 -9999 -9999 -9999 -9999 -9999 -9999 -9999 151.9238433837890625 149.3467254638671875 150.0489959716796875 152.7298583984375 154.2946319580078125 154.6376190185546875 156.3911285400390625 160.27362060546875 162.81195068359375 163.3643035888671875 162.5559539794921875 161.998321533203125 160.4425811767578125 157.6412811279296875 154.34283447265625 152.735504150390625 152.045074462890625 151.6031341552734375 151.2165069580078125 151.0110931396484375 150.94488525390625 150.636932373046875 150.236114501953125 149.575775146484375 149.127105712890625 148.740386962890625 148.450897216796875 148.2303314208984375 147.152435302734375 145.6431732177734375 144.09246826171875 143.1093597412109375 142.3543701171875 141.6659088134765625 141.36956787109375 141.5792999267578125 141.8046112060546875 141.9228973388671875 141.97406005859375 142.0222930908203125 142.022979736328125 142.0568389892578125 142.0869903564453125 142.132354736328125 142.1917266845703125 142.2106781005859375 142.2977294921875 142.4008636474609375 142.4413909912109375 142.481201171875 142.44842529296875 142.424102783203125 142.3810882568359375 142.3751220703125 142.4494171142578125 142.6720733642578125 142.9112396240234375 143.1494598388671875 143.45367431640625 143.926422119140625 144.36126708984375 144.2396240234375 144.247467041015625 144.41534423828125 144.7567596435546875 145.457855224609375 146.128143310546875 146.96337890625 148.118438720703125 149.5900115966796875 150.41107177734375 151.174285888671875 152.509735107421875 153.8711700439453125 155.0062255859375 155.6563720703125 155.92608642578125 156.387298583984375 157.3834686279296875 159.4134674072265625 162.1519317626953125 163.34722900390625 162.0803375244140625 159.15289306640625 160.7929840087890625 168.9054107666015625 170.443817138671875 168.2186279296875 164.8060760498046875 162.09771728515625 161.9701385498046875 165.6608428955078125 169.0838623046875 168.9211273193359375 166.0318603515625 165.887939453125 169.519866943359375 172.830535888671875 178.032958984375 179.57354736328125 180.3709259033203125 176.28271484375 172.3119354248046875 174.0091094970703125 176.5677490234375 175.640960693359375 175.4735107421875 177.30694580078125 -9999 -9999 -9999 -9999 -9999 -9999 -9999 -9999 -9999 -9999 -9999 -9999 -9999 -9999 -9999
-9999 -9999 -9999 -9999 -9999 -9999 -9999 -9999 -9999 -9999 -9999 -9999 -9999 -9999 -9999 -9999 -9999 -9999 150.700439453125 152.88531494140625 152.129486083984375 152.3241119384765625 153.5045928955078125 154.744140625 155.7836456298828125 158.8634033203125 161.61968994140625 163.023651123046875 163.34912109375 162.926300048828125 160.5897674560546875 157.3003387451171875 154.4732818603515625 152.974853515625 152.16351318359375 151.884552001953125 151.6793060302734375 151.1951751708984375 150.9766387939453125 150.7414398193359375 150.4559326171875 149.696807861328125 149.3045196533203125 148.811676025390625 148.494598388671875 148.3364715576171875 147.49957275390625 146.0235748291015625 144.7498016357421875 143.49224853515625 142.6751251220703125 141.8836517333984375 141.434326171875 141.4973907470703125 141.79705810546875 141.899749755859375 141.95709228515625 141.9934539794921875 142.0345306396484375 142.0755157470703125 142.111236572265625 142.1443939208984375 142.182037353515625 142.1738128662109375 142.2406158447265625 142.2305908203125 142.2678375244140625 142.3656005859375 142.3055419921875 142.2130889892578125 142.1966552734375 142.2601318359375 142.446075439453125 142.7244110107421875 142.86785888671875 143.14581298828125 143.358367919921875 143.5196533203125 143.755126953125 144.009979248046875 144.1588287353515625 144.374847412109375 144.84375 145.0646820068359375 145.36163330078125 145.920257568359375 147.2490692138671875 148.5395660400390625 149.8438720703125 151.4471588134765625 153.9133758544921875 155.654388427734375 157.684417724609375 157.558135986328125 157.690155029296875 157.7491455078125 159.1809539794921875 161.01629638671875 162.8951568603515625 163.526092529296875 163.5979766845703125 161.17376708984375 161.476654052734375 167.3694610595703125 167.799560546875 165.2162628173828125 162.464385986328125 161.937591552734375 162.19384765625 166.9874114990234375 170.8210601806640625 171.3351593017578125 169.695343017578125 167.31402587890625 170.098876953125 173.362548828125 178.238739013671875 181.5676116943359375 181.6375732421875 177.4260406494140625 172.22601318359375 171.88006591796875 176.2419891357421875 175.4119720458984375 174.2602081298828125 174.33587646484375 -9999 -9999 -9999 -9999 -9999 -9999 -9999 -9999 -9999 -9999 -9999 -9999 -9999 -9999 -9999
-9999 -9999 -9999 -9999 -9999 -9999 -9999 -9999 -9999 -9999 -9999 -9999 -9999 -9999 -9999 -9999 -9999 -9999 -9999 152.5662078857421875 153.299835205078125 153.309783935546875 154.064910888671875 154.7542266845703125 155.4377288818359375 156.526275634765625 159.1914215087890625 160.718475341796875 162.185638427734375 162.832183837890625 160.56939697265625 157.400238037109375 154.4542083740234375 153.2662200927734375 152.5035400390625 152.4010772705078125 152.4139556884765625 151.6229095458984375 151.023406982421875 150.7988739013671875 150.25341796875 149.7107391357421875 149.4775543212890625 149.0441436767578125 148.6862640380859375 148.3003997802734375 147.7099609375 146.319549560546875 145.27337646484375 144.0883331298828125 143.019317626953125 142.16925048828125 141.5694580078125 141.449981689453125 141.715301513671875 141.862579345703125 141.9388885498046875 141.9741058349609375 142.0162811279296875 142.0724945068359375 142.0727081298828125 142.1135711669921875 142.12310791015625 142.1632537841796875 142.1785888671875 142.2116546630859375 142.22357177734375 142.17144775390625 142.098602294921875 142.0172882080078125 142.1201629638671875 142.2390289306640625 142.579498291015625 142.855987548828125 142.8452606201171875 142.98211669921875 143.1968536376953125 143.502349853515625 143.686614990234375 143.8567962646484375 144.0000152587890625 144.2373809814453125 144.7516937255859375 144.83856201171875 144.9182281494140625 145.181243896484375 146.209259033203125 148.0229339599609375 149.608367919921875 152.3985443115234375 156.019744873046875 158.8314666748046875 159.833038330078125 159.3437347412109375 159.404876708984375 159.306060791015625 159.9442596435546875 160.824005126953125 162.07452392578125 163.076080322265625 163.4147491455078125 161.66217041015625 161.94805908203125 163.4387664794921875 163.47808837890625 163.15521240234375 161.9594268798828125 161.9378509521484375 164.01861572265625 170.3033447265625 172.2509765625 172.28271484375 171.4395599365234375 168.9661407470703125 170.788421630859375 174.604156494140625 180.00775146484375 182.97113037109375 180.62847900390625 177.3919525146484375 172.7526092529296875 170.2216796875 172.3572998046875 174.8599395751953125 173.877960205078125 173.4266815185546875 173.6491851806640625 176.8624725341796875 -9999 -9999 -9999 -9999 -9999 -9999 -9999 -9999 -9999 -9999 -9999 -9999 -9999
-9999 -9999 -9999 -9999 -9999 -9999 -9999 -9999 -9999 -9999 -9999 -9999 -9999 -9999 -9999 -9999 -9999 -9999 -9999 154.0440521240234375 153.176055908203125 153.720672607421875 154.036590576171875 154.4249267578125 155.2108917236328125 155.7377166748046875 157.1098785400390625 158.800445556640625 159.7872467041015625 161.0136566162109375 160.2793731689453125 156.988555908203125 154.0931396484375 153.7662811279296875 153.82769775390625 153.4564971923828125 153.052947998046875 151.764556884765625 151.1199493408203125 150.7726898193359375 150.38763427734375 149.8602142333984375 149.5450286865234375 149.20025634765625 148.8338623046875 148.5454254150390625 147.68939208984375 146.52105712890625 145.7869873046875 144.877349853515625 143.44915771484375 142.3394927978515625 141.84234619140625 141.42559814453125 141.6150665283203125 141.8388824462890625 141.896697998046875 141.9511260986328125 141.9841766357421875 142.0361785888671875 142.010467529296875 142.023651123046875 142.07958984375 142.1284637451171875 142.1479339599609375 142.1459808349609375 142.1270599365234375 142.0817108154296875 141.9313812255859375 141.979583740234375 142.153411865234375 142.2636566162109375 142.5460052490234375 142.950408935546875 142.728118896484375 142.9798583984375 143.2474517822265625 143.4278411865234375 143.6031494140625 143.751007080078125 143.81402587890625 143.901702880859375 144.2241973876953125 144.3787078857421875 144.4453887939453125 144.6533203125 145.34210205078125 147.8880157470703125 150.46551513671875 153.5566253662109375 156.5471954345703125 158.2995758056640625 159.3795166015625 159.4657440185546875 159.66668701171875 159.464874267578125 159.5871429443359375 160.1141357421875 160.537628173828125 161.5258331298828125 162.0789947509765625 162.4403228759765625 161.87457275390625 161.91510009765625 161.4701690673828125 161.99786376953125 162.1383514404296875 163.361724853515625 168.8592376708984375 171.8549957275390625 173.2498931884765625 172.6240386962890625 171.4479522705078125 171.28765869140625 171.29840087890625 175.8340606689453125 180.7411651611328125 182.66827392578125 180.2356719970703125 176.0209503173828125 172.2025909423828125 169.703155517578125 170.34197998046875 174.0250396728515625 174.025970458984375 173.418975830078125 173.14666748046875 173.380279541015625 -9999 -9999 -9999 -9999 -9999 -9999 -9999 -9999 -9999 -9999 -9999 -9999 -9999
-9999 -9999 -9999 -9999 -9999 -9999 -9999 -9999 -9999 -9999 -9999 -9999 -9999 -9999 -9999 -9999 -9999 -9999 -9999 154.671966552734375 153.99114990234375 154.454742431640625 154.594940185546875 154.6590728759765625 155.1396942138671875 155.5477447509765625 155.789520263671875 156.40484619140625 157.175384521484375 157.611907958984375 157.980712890625 155.4302825927734375 154.255645751953125 155.0976715087890625 155.426025390625 154.9375762939453125 153.04254150390625 151.539825439453125 151.044891357421875 150.8172149658203125 150.50213623046875 150.0702667236328125 149.68609619140625 149.3157958984375 148.9316864013671875 148.6493682861328125 147.53741455078125 146.461822509765625 146.0664825439453125 145.56951904296875 144.1981353759765625 142.731353759765625 142.0164337158203125 141.5625152587890625 141.5013580322265625 141.7835693359375 141.885589599609375 141.9266357421875 141.9669036865234375 142.0001220703125 142.0006256103515625 142.0363006591796875 142.062957763671875 142.07421875 142.0662384033203125 142.07611083984375 142.0455322265625 141.9691009521484375 141.8810882568359375 141.99603271484375 142.1712493896484375 142.241912841796875 142.4190826416015625 142.7897796630859375 142.8033294677734375 142.8956451416015625 143.114776611328125 143.295440673828125 143.4257354736328125 143.5415191650390625 143.6905364990234375 143.7125396728515625 143.7251129150390625 143.6879730224609375 143.8597412109375 144.067169189453125 144.7313385009765625 147.4842071533203125 151.935943603515625 154.052642822265625 156.25897216796875 157.8112030029296875 158.844146728515625 159.0680694580078125 158.89111328125 158.7784576416015625 158.9893646240234375 159.39898681640625 159.5519561767578125 160.0314483642578125 160.86083984375 161.4781494140625 160.3484649658203125 159.6212310791015625 160.4349212646484375 162.45794677734375 164.54766845703125 165.7204437255859375 169.431976318359375 172.1964263916015625 173.251922607421875 172.78863525390625 171.898193359375 172.174285888671875 171.6045074462890625 176.412353515625 180.566162109375 182.0823974609375 181.412200927734375 175.971954345703125 170.9226531982421875 169.551544189453125 169.6597747802734375 171.543121337890625 172.9434967041015625 171.6659088134765625 171.517242431640625 170.5826263427734375 -9999 -9999 -9999 -9999 -9999 -9999 -9999 -9999 -9999 -9999 -9999 -9999 -9999
-9999 -9999 -9999 -9999 -9999 -9999 -9999 -9999 -9999 -9999 -9999 -9999 -9999 -9999 -9999 -9999 -9999 -9999 -9999 153.8612213134765625 154.1722259521484375 155.083984375 155.6860198974609375 154.8544921875 155.038055419921875 155.27587890625 155.4798126220703125 155.5703582763671875 155.6576385498046875 155.469268798828125 155.01153564453125 154.3637542724609375 153.874908447265625 154.9926300048828125 155.22601318359375 155.361175537109375 152.757232666015625 151.3824005126953125 150.94952392578125 150.6703033447265625 150.42486572265625 150.1750640869140625 149.8717041015625 149.431976318359375 148.9487457275390625 148.67437744140625 147.8179168701171875 146.57818603515625 146.0363922119140625 145.750518798828125 144.3947601318359375 143.2183990478515625 142.3166961669921875 141.7761688232421875 141.4003448486328125 141.7269134521484375 141.856201171875 141.8882293701171875 141.947021484375 141.95037841796875 141.989532470703125 142.01214599609375 141.982666015625 142.0137176513671875 142.0049896240234375 142.0071563720703125 141.9188385009765625 141.831634521484375 141.8470001220703125 141.9534912109375 142.0854644775390625 142.239776611328125 142.4359893798828125 142.7719879150390625 142.8397979736328125 142.9215545654296875 143.0601348876953125 143.16473388671875 143.23193359375 143.33056640625 143.5418243408203125 143.63238525390625 143.4451751708984375 143.3974456787109375 143.409576416015625 143.5182952880859375 144.0305328369140625 146.2485809326171875 150.9801788330078125 154.338836669921875 155.9865264892578125 157.551483154296875 158.4347381591796875 158.6385650634765625 158.2902984619140625 158.62139892578125 159.2563018798828125 158.379364013671875 159.080596923828125 159.716033935546875 159.4077301025390625 158.8294677734375 158.451416015625 158.8410797119140625 161.648468017578125 164.7824249267578125 166.0876312255859375 166.451995849609375 169.2581787109375 171.1007232666015625 172.542755126953125 172.463348388671875 171.9335174560546875 171.6315460205078125 172.1089019775390625 174.4647216796875 178.5429229736328125 180.542694091796875 179.25701904296875 174.519775390625 169.9216766357421875 169.243499755859375 169.162017822265625 169.5992279052734375 170.52587890625 169.818939208984375 169.8000335693359375 169.643218994140625 169.8348236083984375 -9999 -9999 -9999 -9999 -9999 -9999 -9999 -9999 -9999 -9999 -9999 -9999
-9999 -9999 -9999 -9999 -9999 -9999 -9999 -9999 -9999 -9999 -9999 -9999 -9999 -9999 -9999 -9999 -9999 -9999 152.512603759765625 153.5705108642578125 154.1492462158203125 155.321929931640625 156.58740234375 156.013275146484375 154.9549407958984375 155.3434600830078125 155.576202392578125 155.5306396484375 155.206878662109375 154.6599578857421875 154.139556884765625 153.438812255859375 152.99737548828125 153.9468994140625 154.485076904296875 153.94903564453125 152.7521514892578125 151.520416259765625 150.8353118896484375 150.5270843505859375 150.289459228515625 150.1203460693359375 150.021820068359375 149.6373291015625 148.97113037109375 148.4987640380859375 147.93377685546875 146.70172119140625 145.972442626953125 145.24481201171875 144.3810272216796875 143.3752899169921875 142.480987548828125 141.937774658203125 141.4318695068359375 141.6015472412109375 141.845977783203125 141.903839111328125 141.925048828125 141.916290283203125 141.9596710205078125 141.9405364990234375 141.9495849609375 141.97723388671875 141.951324462890625 141.9215087890625 141.8094024658203125 141.7735748291015625 141.8515167236328125 142.0071563720703125 142.142181396484375 142.232452392578125 142.263916015625 142.6131591796875 143.02899169921875 143.0394287109375 143.08807373046875 143.0648956298828125 143.049652099609375 143.105072021484375 143.2534332275390625 143.874969482421875 143.4129486083984375 143.242950439453125 143.2479400634765625 143.2502899169921875 143.59033203125 145.433837890625 150.451873779296875 153.7403564453125 155.13739013671875 157.0403900146484375 158.1560516357421875 158.540374755859375 157.8428802490234375 157.7093048095703125 158.7105712890625 157.7937164306640625 157.550018310546875 158.6521453857421875 158.2378082275390625 157.9762115478515625 157.9743194580078125 158.9547271728515625 163.326507568359375 165.4546661376953125 165.6081085205078125 166.2518768310546875 169.1783294677734375 170.7959747314453125 171.595672607421875 171.5361785888671875 171.705902099609375 171.5665435791015625 172.13275146484375 172.3836669921875 175.5586395263671875 176.0631561279296875 175.715728759765625 172.440185546875 169.453094482421875 168.78936767578125 168.5304107666015625 168.628143310546875 168.727874755859375 168.88079833984375 169.333831787109375 169.263275146484375 -9999 -9999 -9999 -9999 -9999 -9999 -9999 -9999 -9999 -9999 -9999 -9999 -9999
-9999 -9999 -9999 -9999 -9999 -9999 -9999 -9999 -9999 -9999 -9999 -9999 -9999 -9999 -9999 -9999 -9999 -9999 153.1090087890625 152.801910400390625 154.0725250244140625 154.8789520263671875 155.6966094970703125 155.79345703125 155.0826873779296875 155.093170166015625 155.6302337646484375 155.8108367919921875 155.42449951171875 154.5671539306640625 154.2110443115234375 152.4769287109375 152.3990325927734375 152.377044677734375 152.5190582275390625 152.426605224609375 152.181427001953125 151.397216796875 150.7022247314453125 150.45098876953125 150.42236328125 150.248687744140625 149.99755859375 149.9136810302734375 149.0406494140625 148.2546234130859375 147.7151336669921875 146.6879425048828125 145.72064208984375 144.987701416015625 144.372894287109375 143.3691558837890625 142.6125335693359375 142.11517333984375 141.592437744140625 141.46820068359375 141.799591064453125 141.8636932373046875 141.9000396728515625 141.907257080078125 141.907440185546875 141.90191650390625 141.9170074462890625 141.8873443603515625 141.858489990234375 141.8367767333984375 141.742889404296875 141.7902984619140625 141.9112091064453125 142.0543060302734375 142.11920166015625 142.1138153076171875 142.217193603515625 142.5415191650390625 143.142608642578125 143.119537353515625 143.093994140625 142.94427490234375 142.820709228515625 142.787261962890625 142.991668701171875 143.7004241943359375 143.45135498046875 143.19537353515625 143.2596893310546875 143.29925537109375 143.30902099609375 143.9471435546875 147.40155029296875 152.1976776123046875 154.1442413330078125 155.9147186279296875 157.6353759765625 157.8719635009765625 156.870697021484375 155.93194580078125 155.8920135498046875 155.662017822265625 156.2296295166015625 157.6250152587890625 158.54632568359375 157.9824676513671875 158.08355712890625 159.69818115234375 163.2637939453125 165.3756866455078125 164.750396728515625 165.369903564453125 167.8978118896484375 169.563201904296875 170.473663330078125 170.92047119140625 170.92449951171875 170.3864288330078125 170.564117431640625 171.882415771484375 172.455535888671875 173.153533935546875 174.3990478515625 172.7606353759765625 169.9373626708984375 168.6570587158203125 168.36907958984375 168.3589935302734375 168.3589935302734375 168.3705902099609375 168.86492919921875 168.936676025390625 -9999 -9999 -9999 -9999 -9999 -9999 -9999 -9999 -9999 -9999 -9999 -9999 -9999
-9999 -9999 -9999 -9999 -9999 -9999 -9999 -9999 -9999 -9999 -9999 -9999 -9999 -9999 -9999 -9999 159.06488037109375 157.37213134765625 154.7763671875 153.3342437744140625 155.067413330078125 155.30157470703125 154.783477783203125 154.4604339599609375 154.6522216796875 154.7858428955078125 155.13922119140625 155.8514556884765625 155.272308349609375 154.5521240234375 154.291900634765625 153.3417816162109375 152.6024932861328125 152.983642578125 152.904266357421875 152.101531982421875 151.1963958740234375 150.7638397216796875 150.7088775634765625 150.6623077392578125 150.6164093017578125 150.3432769775390625 150.12261962890625 150.1684722900390625 149.2714080810546875 148.430511474609375 147.6222076416015625 146.8366546630859375 145.8768310546875 145.234527587890625 144.4088592529296875 143.2694091796875 142.60546875 142.18316650390625 141.8013153076171875 141.4940185546875 141.5694732666015625 141.819793701171875 141.8513336181640625 141.896331787109375 141.8520660400390625 141.8753509521484375 141.8787078857421875 141.805419921875 141.7750701904296875 141.7420501708984375 141.785491943359375 141.945281982421875 142.0129241943359375 142.0506744384765625 142.1982421875 142.2439727783203125 142.258697509765625 142.3832855224609375 142.9114837646484375 143.1259918212890625 142.956146240234375 142.7750396728515625 142.64044189453125 142.584320068359375 142.947967529296875 143.481170654296875 143.642181396484375 143.2171783447265625 143.2894287109375 143.293060302734375 143.275054931640625 143.426055908203125 144.7894287109375 149.546539306640625 152.3131256103515625 152.8596038818359375 155.0717315673828125 156.159271240234375 155.097564697265625 154.563629150390625 154.623779296875 154.6747894287109375 155.621490478515625 159.1497344970703125 160.568023681640625 158.15179443359375 158.18524169921875 160.52142333984375 163.6850738525390625 164.9962615966796875 164.3558349609375 164.740081787109375 166.76837158203125 168.292877197265625 169.2632293701171875 169.790435791015625 169.807861328125 169.09783935546875 167.9395751953125 169.58056640625 169.7168731689453125 172.004730224609375 175.051727294921875 176.1728057861328125 173.75640869140625 169.8185577392578125 168.4156646728515625 168.3589935302734375 168.3589935302734375 168.3589935302734375 168.4680938720703125 168.56365966796875 168.57275390625 -9999 -9999 -9999 -9999 -9999 -9999 -9999 -9999 -9999 -9999 -9999 -9999
-9999 -9999 -9999 -9999 -9999 -9999 -9999 -9999 -9999 -9999 -9999 -9999 -9999 -9999 -9999 157.753143310546875 156.9260101318359375 155.645599365234375 153.917205810546875 154.4435272216796875 157.0301055908203125 156.7560272216796875 155.1279296875 154.8893280029296875 155.2404937744140625 155.01849365234375 154.8062591552734375 155.30645751953125 155.69830322265625 155.0408935546875 153.147369384765625 153.05072021484375 153.66680908203125 153.8693695068359375 153.4138031005859375 152.3999786376953125 151.1792755126953125 150.804656982421875 150.818450927734375 150.822723388671875 150.7646484375 150.5062713623046875 150.2886505126953125 150.23101806640625 149.7606658935546875 148.5406036376953125 147.4857025146484375 146.62139892578125 145.9080810546875 145.4803619384765625 144.305999755859375 143.18170166015625 142.5305328369140625 142.263885498046875 141.929290771484375 141.6023101806640625 141.4603729248046875 141.6088714599609375 141.799041748046875 141.8424530029296875 141.837158203125 141.8367462158203125 141.7773590087890625 141.7749786376953125 141.7316741943359375 141.7461700439453125 141.897247314453125 141.9965972900390625 142.0701446533203125 142.1666412353515625 142.2492523193359375 142.2804718017578125 142.2674407958984375 142.3495330810546875 142.6260833740234375 142.9552154541015625 142.7600555419921875 142.652984619140625 142.4876251220703125 142.6259613037109375 142.8605194091796875 143.302947998046875 143.55078125 143.2360382080078125 143.2846832275390625 143.2548065185546875 143.2778778076171875 143.2451171875 143.7122802734375 145.62847900390625 147.6469879150390625 149.95184326171875 152.770050048828125 154.3096160888671875 153.92010498046875 153.931304931640625 154.3247528076171875 154.624420166015625 155.62872314453125 159.8849334716796875 160.9683380126953125 158.534515380859375 158.3731536865234375 161.2268524169921875 164.2571868896484375 164.3843536376953125 163.80731201171875 163.3308563232421875 164.7503204345703125 166.2255706787109375 167.3718109130859375 167.61376953125 167.8165740966796875 167.373260498046875 165.9444427490234375 166.4396209716796875 169.2470855712890625 172.8271331787109375 173.693756103515625 176.756134033203125 175.351318359375 171.8647003173828125 168.777435302734375 168.3589935302734375 168.3589935302734375 168.3589935302734375 168.3589935302734375 168.3589935302734375 168.3589935302734375 168.3589935302734375 -9999 -9999 -9999 -9999 -9999 -9999 -9999 -9999 -9999 -9999 -9999
-9999 -9999 -9999 -9999 -9999 -9999 -9999 -9999 -9999 -9999 156.11749267578125 158.1916961669921875 159.727996826171875 159.56634521484375 158.5115509033203125 157.1555023193359375 155.7524566650390625 154.615814208984375 153.9138336181640625 154.88665771484375 157.9962615966796875 157.7757415771484375 156.0810089111328125 155.5545501708984375 155.98712158203125 155.80078125 155.1324615478515625 154.917083740234375 155.6482696533203125 154.999298095703125 153.4270172119140625 153.5933074951171875 154.00433349609375 153.559906005859375 153.370941162109375 152.4275054931640625 151.39215087890625 150.91265869140625 150.9615020751953125 150.8770294189453125 150.7365570068359375 150.5547027587890625 150.3491058349609375 150.1984100341796875 150.2152862548828125 148.9940185546875 147.8223114013671875 146.9339599609375 146.11077880859375 145.51727294921875 144.29425048828125 143.214019775390625 142.65032958984375 142.3158721923828125 141.98681640625 141.7575225830078125 141.54779052734375 141.493316650390625 141.7426910400390625 141.8047943115234375 141.8283538818359375 141.77642822265625 141.739166259765625 141.7398681640625 141.67193603515625 141.7511138916015625 141.91888427734375 142.077728271484375 142.1730194091796875 142.208740234375 142.2504119873046875 142.2417755126953125 142.2259521484375 142.296630859375 142.4312896728515625 142.7975616455078125 142.6656036376953125 142.5135955810546875 142.5442962646484375 142.74603271484375 142.8710479736328125 143.1242828369140625 143.4691619873046875 143.244781494140625 143.3267059326171875 143.2758026123046875 143.2517242431640625 143.2291717529296875 143.3666839599609375 144.0684814453125 145.9985809326171875 149.362701416015625 151.503387451171875 152.3770904541015625 153.3641510009765625 154.217010498046875 154.6178436279296875 154.961517333984375 155.17572021484375 157.781951904296875 160.887298583984375 159.732391357421875 158.9357757568359375 161.68963623046875 164.3653106689453125 164.584991455078125 164.495361328125 163.5068206787109375 162.7443084716796875 163.17718505859375 163.6142120361328125 163.8620147705078125 164.003570556640625 164.3520660400390625 165.006683349609375 166.0751190185546875 170.46820068359375 174.3994903564453125 174.3391265869140625 173.22003173828125 173.730926513671875 171.8577117919921875 168.98297119140625 168.3589935302734375 168.3589935302734375 168.3589935302734375 168.3589935302734375 168.3589935302734375 168.3589935302734375 168.3589935302734375 168.3589935302734375 -9999 -9999 -9999 -9999 -9999 -9999 -9999 -9999 -9999 -9999
-9999 -9999 -9999 -9999 -9999 -9999 -9999 -9999 -9999 155.710205078125 155.8625946044921875 156.77978515625 157.98876953125 158.654296875 158.0662384033203125 156.27215576171875 155.341217041015625 154.691925048828125 154.17236328125 155.3639373779296875 158.1970977783203125 158.7290496826171875 157.1265411376953125 156.748260498046875 156.648712158203125 156.3837738037109375 155.2212066650390625 154.875762939453125 154.774322509765625 155.5538482666015625 154.168548583984375 154.0419921875 154.216033935546875 153.8969573974609375 153.0964202880859375 152.389556884765625 151.3326568603515625 151.0557861328125 151.1101837158203125 150.9094085693359375 150.6716156005859375 150.5388641357421875 150.4146270751953125 150.2156829833984375 150.2566986083984375 149.3343048095703125 148.5232391357421875 147.5397186279296875 146.2191162109375 145.368377685546875 144.219329833984375 143.1244049072265625 142.4783477783203125 142.1038055419921875 141.884735107421875 141.886199951171875 141.8215789794921875 141.51763916015625 141.6029815673828125 141.754241943359375 141.7757415771484375 141.7555694580078125 141.69976806640625 141.6736602783203125 141.646942138671875 141.727508544921875 141.92578125 142.0606689453125 142.1445159912109375 142.224365234375 142.2407379150390625 142.210235595703125 142.201629638671875 142.200775146484375 142.30413818359375 142.692535400390625 142.7574462890625 142.4884185791015625 142.6824188232421875 142.7867279052734375 142.84527587890625 142.99609375 143.3074188232421875 143.2866363525390625 143.3466796875 143.2557830810546875 143.1338653564453125 143.28106689453125 143.263458251953125 143.6669158935546875 145.57928466796875 148.9741973876953125 149.900115966796875 151.9530029296875 154.00946044921875 154.559112548828125 154.81231689453125 155.0542755126953125 155.071044921875 155.3973236083984375 157.9893951416015625 160.6851806640625 160.1053009033203125 161.920257568359375 163.9996490478515625 164.891357421875 165.0141448974609375 164.236114501953125 162.702484130859375 162.36590576171875 162.372955322265625 162.2938690185546875 162.5201568603515625 163.7501220703125 165.98980712890625 167.51690673828125 170.584320068359375 174.5880279541015625 173.679931640625 170.8832244873046875 171.9562835693359375 171.081390380859375 168.738800048828125 168.3589935302734375 168.3589935302734375 168.3589935302734375 168.3589935302734375 168.3589935302734375 168.3589935302734375 168.3589935302734375 168.3589935302734375 168.3878631591796875 -9999 -9999 -9999 -9999 -9999 -9999 -9999 -9999 -9999
-9999 -9999 -9999 -9999 -9999 -9999 -9999 -9999 155.378326416015625 155.48382568359375 155.533966064453125 155.7418975830078125 156.1597747802734375 157.0063323974609375 157.1165771484375 155.7320556640625 154.98199462890625 154.572601318359375 154.5799560546875 155.649993896484375 157.1443939208984375 157.0457000732421875 156.610137939453125 156.61669921875 156.63323974609375 156.1628265380859375 155.117767333984375 154.517822265625 154.1036376953125 154.444732666015625 155.27642822265625 154.091094970703125 153.94915771484375 154.10595703125 153.096893310546875 152.217987060546875 151.3310699462890625 151.19061279296875 151.2883758544921875 151.0406494140625 150.811614990234375 150.6410675048828125 150.425628662109375 150.2259521484375 150.2105560302734375 148.8917236328125 147.448394775390625 146.6861114501953125 145.848602294921875 145.07342529296875 144.3587799072265625 143.0506591796875 142.1717681884765625 141.996826171875 141.8282318115234375 141.9346160888671875 142.07501220703125 141.8447265625 141.6036529541015625 141.5719451904296875 141.701751708984375 141.714080810546875 141.6918182373046875 141.628570556640625 141.597137451171875 141.720916748046875 141.7642822265625 141.9577789306640625 142.103607177734375 142.2360382080078125 142.2200469970703125 142.2227935791015625 142.2336273193359375 142.1050872802734375 142.1307830810546875 142.563995361328125 142.60919189453125 142.6323089599609375 142.7549591064453125 142.786651611328125 142.8561248779296875 142.9727020263671875 143.3347625732421875 143.296783447265625 143.29486083984375 143.2160491943359375 143.2832183837890625 143.3323974609375 143.31951904296875 143.400543212890625 144.3551025390625 146.5966949462890625 148.6532745361328125 151.592559814453125 154.071624755859375 154.634552001953125 154.947662353515625 155.0469818115234375 155.1025390625 154.986572265625 157.2339324951171875 161.5401153564453125 161.6996307373046875 162.572479248046875 163.338409423828125 164.3116912841796875 163.9139251708984375 162.6079864501953125 162.2733154296875 162.0631866455078125 162.099334716796875 162.1807708740234375 162.30657958984375 164.44390869140625 166.6938629150390625 168.111358642578125 169.1268157958984375 172.9167022705078125 173.4747772216796875 170.6755523681640625 169.2493438720703125 168.7961883544921875 168.4020843505859375 168.3589935302734375 168.3589935302734375 168.3589935302734375 168.3589935302734375 168.3589935302734375 168.3589935302734375 168.3589935302734375 168.3589935302734375 168.3604583740234375 -9999 -9999 -9999 -9999 -9999 -9999 -9999 -9999 -9999
-9999 -9999 -9999 -9999 -9999 -9999 -9999 155.2901763916015625 155.120147705078125 155.1529998779296875 155.15911865234375 155.20086669921875 155.24835205078125 155.462554931640625 155.4214019775390625 155.098541259765625 154.626556396484375 154.58074951171875 154.8258819580078125 155.191070556640625 156.0122222900390625 155.850341796875 155.9824066162109375 155.9913177490234375 156.1331939697265625 155.672607421875 154.8293914794921875 154.177001953125 153.76593017578125 153.7358551025390625 154.227783203125 154.774871826171875 153.756866455078125 153.9210662841796875 153.352691650390625 152.2693023681640625 151.5224151611328125 151.1109466552734375 151.2034149169921875 150.934295654296875 150.6842041015625 150.590911865234375 150.4727783203125 150.3289794921875 149.3417816162109375 147.6368408203125 147.896484375 147.8437347412109375 146.777252197265625 145.8419342041015625 144.644775390625 143.1641998291015625 142.2152557373046875 142.01214599609375 142.313812255859375 142.52606201171875 142.357696533203125 142.048553466796875 141.8666534423828125 141.6038360595703125 141.47918701171875 141.4889678955078125 141.4865875244140625 141.5125274658203125 141.5648345947265625 141.642822265625 141.7606964111328125 141.87884521484375 142.008941650390625 142.150390625 142.225860595703125 142.2557830810546875 142.1704559326171875 142.072540283203125 142.089813232421875 142.2947540283203125 142.620208740234375 142.8331146240234375 142.8822021484375 142.8393096923828125 142.880126953125 142.9124908447265625 143.2800750732421875 143.3340606689453125 143.2202911376953125 143.2898101806640625 143.3535003662109375 143.3283538818359375 143.317535400390625 143.297119140625 143.7780609130859375 145.0272979736328125 147.199951171875 149.5353851318359375 152.426513671875 154.3720245361328125 154.8496856689453125 155.074798583984375 154.898773193359375 154.848388671875 158.3138275146484375 162.3216400146484375 162.414031982421875 162.324249267578125 162.62445068359375 163.508941650390625 162.745147705078125 162.3145751953125 162.1853485107421875 162.0904998779296875 162.0286102294921875 162.1059722900390625 162.243133544921875 163.377105712890625 166.0097198486328125 168.0175933837890625 168.327972412109375 169.72821044921875 172.5604095458984375 171.145233154296875 168.7965240478515625 168.363922119140625 168.3589935302734375 168.3589935302734375 168.3589935302734375 168.3589935302734375 168.3589935302734375 168.3589935302734375 168.3589935302734375 168.3589935302734375 168.3589935302734375 168.4856719970703125 -9999 -9999 -9999 -9999 -9999 -9999 -9999 -9999 -9999
-9999 -9999 -9999 -9999 -9999 -9999 -9999 155.2451019287109375 155.1641693115234375 155.0774383544921875 155.1530303955078125 155.1095123291015625 154.9815826416015625 154.8974151611328125 154.8692779541015625 154.6987457275390625 155.047271728515625 155.1418609619140625 154.9163665771484375 154.6051025390625 154.6553802490234375 154.7877655029296875 154.7421722412109375 155.09844970703125 155.697845458984375 155.2391510009765625 154.121612548828125 153.617095947265625 153.370635986328125 153.529937744140625 153.3514862060546875 154.021453857421875 154.3093109130859375 153.8201751708984375 153.28741455078125 152.28729248046875 151.941925048828125 151.219482421875 150.984466552734375 150.8426055908203125 150.7491455078125 150.709442138671875 150.4792327880859375 150.0687713623046875 148.8997802734375 149.34027099609375 149.280670166015625 148.759918212890625 147.4609375 146.3760528564453125 145.13897705078125 143.9077911376953125 143.2376708984375 143.5108184814453125 143.1725006103515625 142.812286376953125 142.581024169921875 142.28814697265625 142.0278167724609375 141.715850830078125 141.5395355224609375 141.511810302734375 141.466339111328125 141.4279632568359375 141.55450439453125 141.6176605224609375 141.7188873291015625 141.8021697998046875 141.9485931396484375 142.1126708984375 142.1472320556640625 142.1356048583984375 142.0689849853515625 142.0915985107421875 142.0513763427734375 142.3083953857421875 142.7636871337890625 143.016387939453125 142.80987548828125 142.8336334228515625 142.83428955078125 142.98406982421875 143.2667999267578125 143.2137451171875 143.2144012451171875 143.275604248046875 143.2895660400390625 143.284881591796875 143.2966766357421875 143.2667083740234375 143.4368896484375 144.1724090576171875 145.9538421630859375 148.5556182861328125 149.7281951904296875 152.9604644775390625 154.44061279296875 154.809661865234375 154.7890167236328125 154.783935546875 156.8034515380859375 160.078826904296875 162.062744140625 162.5965118408203125 162.1086273193359375 162.444549560546875 162.6081695556640625 162.33660888671875 162.2908782958984375 162.1627349853515625 162.0904083251953125 162.1189422607421875 162.728912353515625 165.13543701171875 167.9571685791015625 168.8652496337890625 167.5636444091796875 166.99835205078125 168.925811767578125 170.189910888671875 168.98907470703125 168.563323974609375 168.361541748046875 168.3589935302734375 168.3589935302734375 168.3589935302734375 168.3589935302734375 168.3589935302734375 168.3589935302734375 168.3589935302734375 168.3589935302734375 -9999 -9999 -9999 -9999 -9999 -9999 -9999 -9999 -9999 -9999
-9999 -9999 -9999 -9999 -9999 -9999 157.066680908203125 156.465118408203125 156.4076385498046875 156.4721832275390625 156.5619354248046875 156.9120330810546875 157.722900390625 156.95086669921875 156.249267578125 155.79937744140625 156.35260009765625 155.776275634765625 155.08477783203125 154.9358673095703125 154.8736724853515625 154.5495147705078125 153.893341064453125 153.5176239013671875 154.0701141357421875 153.789764404296875 153.441253662109375 153.237457275390625 153.1147308349609375 153.4197998046875 153.0491790771484375 152.931915283203125 154.1327056884765625 153.9491424560546875 153.2338104248046875 152.3180084228515625 151.937652587890625 151.47698974609375 151.11212158203125 151.0071563720703125 150.800201416015625 150.597869873046875 149.8629150390625 149.451446533203125 150.3896331787109375 150.2222442626953125 149.3333892822265625 148.760528564453125 147.88525390625 146.9201812744140625 146.0260772705078125 145.277099609375 144.6290130615234375 144.0963287353515625 143.497467041015625 143.0609588623046875 142.7981414794921875 142.48870849609375 142.2520904541015625 141.8887939453125 141.594207763671875 141.6250457763671875 141.563262939453125 141.428955078125 141.491912841796875 141.6216888427734375 141.664581298828125 141.7751617431640625 141.8591156005859375 142.004730224609375 141.9871978759765625 142.0294189453125 142.038787841796875 142.1357879638671875 142.2702178955078125 142.33489990234375 142.62640380859375 143.0274505615234375 142.7959747314453125 142.863525390625 142.893890380859375 143.0652313232421875 143.228759765625 143.1595458984375 143.20465087890625 143.2686767578125 143.3435211181640625 143.2978515625 143.28558349609375 143.264892578125 143.2838897705078125 143.5667724609375 144.585601806640625 146.4083251953125 147.70208740234375 150.2665557861328125 153.03790283203125 154.3217620849609375 154.604248046875 154.5478515625 155.21221923828125 156.1581878662109375 158.6794281005859375 161.282257080078125 161.3564910888671875 161.71295166015625 162.5472259521484375 162.3785858154296875 162.1657562255859375 161.941131591796875 162.000396728515625 162.415069580078125 165.4834442138671875 168.56536865234375 169.70233154296875 169.308349609375 167.819671630859375 165.9278717041015625 166.7202606201171875 168.3190155029296875 169.645843505859375 169.2631683349609375 168.57763671875 168.5766448974609375 168.5469512939453125 168.635894775390625 168.8400421142578125 168.76495361328125 168.3798065185546875 168.601165771484375 -9999 -9999 -9999 -9999 -9999 -9999 -9999 -9999 -9999 -9999 -9999
-9999 -9999 -9999 -9999 -9999 160.7129364013671875 160.715484619140625 160.1462554931640625 159.616790771484375 159.51995849609375 159.6152801513671875 159.80474853515625 160.4947662353515625 160.0159454345703125 158.680908203125 158.54827880859375 159.1655120849609375 157.731414794921875 156.06829833984375 155.93267822265625 155.953948974609375 155.6309967041015625 154.337890625 152.516632080078125 152.6130523681640625 153.1483154296875 153.015106201171875 152.9471588134765625 152.89111328125 153.180877685546875 152.8484344482421875 153.027099609375 153.275665283203125 154.060150146484375 153.1607818603515625 152.2952728271484375 151.7788543701171875 151.6927032470703125 151.5372161865234375 151.1487579345703125 150.872833251953125 150.424896240234375 149.9944000244140625 150.5025634765625 150.6428375244140625 150.4822998046875 149.7974090576171875 149.018463134765625 148.11639404296875 147.30572509765625 146.4833984375 145.6069183349609375 144.9189605712890625 144.3592987060546875 143.780548095703125 143.3108367919921875 142.913238525390625 142.64434814453125 142.3757781982421875 141.999267578125 141.8664703369140625 141.8460235595703125 141.750885009765625 141.63519287109375 141.4075775146484375 141.5731658935546875 141.6508331298828125 141.7321929931640625 141.8062896728515625 141.898773193359375 141.8956756591796875 141.9669342041015625 142.0764923095703125 142.1933746337890625 142.3128814697265625 142.3540191650390625 142.55401611328125 142.97515869140625 142.83721923828125 142.87213134765625 142.8936614990234375 142.9521636962890625 143.1030731201171875 143.1033935546875 143.2217559814453125 143.262908935546875 143.2781524658203125 143.31658935546875 143.2984161376953125 143.3932037353515625 143.4135284423828125 143.4290771484375 143.88494873046875 145.09027099609375 146.4900970458984375 147.80059814453125 150.4856414794921875 152.9032440185546875 153.9736785888671875 154.4528961181640625 154.3727874755859375 154.5300445556640625 155.820526123046875 158.641265869140625 160.6085357666015625 162.1359710693359375 162.8681640625 161.266510009765625 162.1507415771484375 162.4502105712890625 162.1835784912109375 163.1666259765625 166.2833251953125 170.380157470703125 170.1588592529296875 168.9887542724609375 167.3981170654296875 165.6202850341796875 165.6784820556640625 166.350860595703125 168.8358001708984375 171.1730194091796875 169.6674652099609375 169.56524658203125 169.4346466064453125 169.9323272705078125 170.77984619140625 170.6854705810546875 169.1492156982421875 -9999 -9999 -9999 -9999 -9999 -9999 -9999 -9999 -9999 -9999 -9999 -9999
-9999 -9999 -9999 -9999 159.15667724609375 160.5111541748046875 162.2172698974609375 162.7017669677734375 162.7028045654296875 162.4441986083984375 162.0740966796875 162.0703125 161.205047607421875 159.942138671875 159.2921295166015625 159.365081787109375 159.7458038330078125 159.013397216796875 157.868133544921875 158.4405975341796875 159.081207275390625 158.18023681640625 155.8776397705078125 154.1315460205078125 153.3349609375 153.231475830078125 152.8181915283203125 152.64544677734375 152.879547119140625 152.944610595703125 152.8299407958984375 153.053619384765625 153.15167236328125 153.148834228515625 153.7998199462890625 152.491546630859375 151.8562469482421875 151.620635986328125 151.596893310546875 151.4034423828125 150.805206298828125 150.29656982421875 150.5596160888671875 150.8683624267578125 150.9433746337890625 151.05224609375 150.3634796142578125 149.2859649658203125 148.5397796630859375 147.7572174072265625 146.913848876953125 146.000518798828125 145.130401611328125 144.514190673828125 144.0067901611328125 143.5361480712890625 143.0157623291015625 142.6486968994140625 142.360137939453125 142.1627655029296875 142.1276092529296875 142.045684814453125 141.9691619873046875 141.8352203369140625 141.6546478271484375 141.3897247314453125 141.6000213623046875 141.6765594482421875 141.757232666015625 141.7727508544921875 141.8006744384765625 141.90875244140625 142.0601043701171875 142.235870361328125 142.6158905029296875 142.5156402587890625 142.5017547607421875 142.8535614013671875 142.7684478759765625 142.786376953125 142.73101806640625 143.040191650390625 143.22296142578125 143.0594482421875 143.1863861083984375 143.2606658935546875 143.2253265380859375 143.1082763671875 143.3591766357421875 143.4114990234375 143.3855438232421875 143.2488555908203125 143.58599853515625 144.313812255859375 145.531097412109375 146.7751312255859375 148.0697021484375 150.9802703857421875 153.229705810546875 153.9982452392578125 153.9082489013671875 154.259765625 155.41497802734375 157.74139404296875 161.424285888671875 163.25372314453125 162.4430999755859375 160.1407012939453125 161.6287689208984375 162.4243011474609375 162.1548919677734375 162.6492767333984375 165.1903228759765625 167.2584075927734375 167.858612060546875 167.46490478515625 166.1931915283203125 165.47918701171875 165.32623291015625 165.5266571044921875 167.012481689453125 170.7525482177734375 171.6173095703125 171.676910400390625 171.8080596923828125 172.3050689697265625 173.6381683349609375 173.6932525634765625 171.579498291015625 170.1811981201171875 -9999 -9999 -9999 -9999 -9999 -9999 -9999 -9999 -9999 -9999 -9999
-9999 -9999 -9999 156.514801025390625 159.777587890625 161.735137939453125 163.1101226806640625 163.686859130859375 164.13201904296875 163.795196533203125 162.923187255859375 162.542877197265625 161.77667236328125 160.3635711669921875 160.162933349609375 159.8585662841796875 159.727508544921875 159.223876953125 158.4972076416015625 159.03729248046875 159.12994384765625 158.39471435546875 156.6387939453125 154.5296173095703125 153.6640167236328125 153.733154296875 153.23736572265625 153.025787353515625 152.4894866943359375 152.68927001953125 152.77191162109375 152.80535888671875 153.15728759765625 152.8775482177734375 152.9801483154296875 153.4006500244140625 151.9921722412109375 151.662567138671875 151.4482879638671875 151.3179168701171875 150.8470611572265625 150.42462158203125 150.912506103515625 151.1843414306640625 151.177093505859375 151.2404937744140625 150.860565185546875 149.8630828857421875 148.8440399169921875 148.2590179443359375 147.3259429931640625 146.405975341796875 145.4384307861328125 144.726776123046875 144.1966094970703125 143.63763427734375 143.029449462890625 142.6473236083984375 142.5469970703125 142.556793212890625 142.3714599609375 142.207305908203125 142.08966064453125 141.911865234375 141.7847442626953125 141.502349853515625 141.3837738037109375 141.5401611328125 141.6331634521484375 141.6478729248046875 141.7310638427734375 141.8636474609375 142.15869140625 142.1700286865234375 142.8571929931640625 142.927337646484375 142.7531585693359375 142.61688232421875 142.66973876953125 142.674896240234375 142.7815093994140625 143.37799072265625 143.359619140625 143.020263671875 143.0523223876953125 143.3236083984375 143.2537841796875 143.2508087158203125 143.2004547119140625 143.1769256591796875 143.0840301513671875 143.083587646484375 143.3268585205078125 144.0362548828125 144.8282318115234375 145.9329986572265625 147.0636138916015625 148.6834564208984375 151.0332489013671875 150.052215576171875 149.5068817138671875 153.161407470703125 154.8948974609375 158.6802825927734375 161.539459228515625 162.7673492431640625 160.3868560791015625 158.4151458740234375 159.6278076171875 160.863067626953125 160.5496978759765625 161.6312255859375 163.1956329345703125 165.4782257080078125 166.4986419677734375 167.0701446533203125 166.232391357421875 165.503204345703125 165.21307373046875 165.478240966796875 166.680511474609375 169.7844390869140625 172.23956298828125 172.82513427734375 172.27227783203125 173.4504241943359375 174.41412353515625 174.874114990234375 174.3157958984375 173.168365478515625 171.2928314208984375 173.693267822265625 -9999 -9999 -9999 -9999 -9999 -9999 -9999 -9999 -9999
-9999 -9999 156.309906005859375 156.575469970703125 159.4924163818359375 163.0517730712890625 164.3448944091796875 164.01568603515625 164.196044921875 164.435272216796875 164.0039825439453125 163.6121978759765625 163.270355224609375 161.4911041259765625 161.950225830078125 161.33221435546875 159.92144775390625 159.4211273193359375 159.1801605224609375 159.0821990966796875 159.036773681640625 157.9481658935546875 156.5504302978515625 154.5360565185546875 153.96240234375 154.2050323486328125 153.46295166015625 152.8480224609375 152.731719970703125 152.315948486328125 152.3427276611328125 152.3858489990234375 152.9421539306640625 153.0089874267578125 152.4620208740234375 152.86163330078125 152.78533935546875 151.53985595703125 151.4450531005859375 151.098358154296875 150.9038848876953125 150.9422149658203125 151.0067596435546875 151.28765869140625 151.310272216796875 151.4406890869140625 151.043304443359375 150.2752838134765625 149.066925048828125 148.60235595703125 147.727203369140625 146.6334228515625 145.624725341796875 144.912841796875 144.2290191650390625 143.4382476806640625 143.0226593017578125 142.8589324951171875 142.8856658935546875 142.801300048828125 142.5073394775390625 142.3600006103515625 142.1544036865234375 142.0073394775390625 141.803985595703125 141.5946502685546875 141.4334716796875 141.3589935302734375 141.490509033203125 141.5890045166015625 141.6891937255859375 141.8485107421875 142.0774383544921875 142.1983642578125 142.742523193359375 143.087493896484375 143.2994842529296875 142.7550811767578125 142.79180908203125 142.7386016845703125 142.77166748046875 143.3418426513671875 143.3191375732421875 142.9893798828125 142.97235107421875 143.208282470703125 143.3394317626953125 143.1953125 143.1167144775390625 143.1208953857421875 143.082550048828125 143.125946044921875 143.244873046875 143.7684173583984375 144.42071533203125 145.2037506103515625 146.3802490234375 147.3470458984375 148.490203857421875 148.5336456298828125 149.7363433837890625 152.8525238037109375 154.5604095458984375 157.6581268310546875 161.284332275390625 161.1270599365234375 158.7932281494140625 157.2953643798828125 156.9875030517578125 157.1037445068359375 157.9525146484375 159.97979736328125 161.91650390625 165.7805023193359375 167.3924713134765625 167.62738037109375 167.7050628662109375 165.8947296142578125 165.098968505859375 165.7992706298828125 167.0520782470703125 169.1003570556640625 170.5058746337890625 171.91357421875 172.504150390625 174.3106231689453125 176.2669830322265625 177.1567840576171875 175.5954437255859375 174.6976776123046875 172.422332763671875 172.4828338623046875 174.207275390625 -9999 -9999 -9999 -9999 -9999 -9999 -9999 -9999
156.801513671875 156.312286376953125 156.4500579833984375 156.93963623046875 159.596893310546875 163.2995758056640625 164.474945068359375 164.8648223876953125 165.321319580078125 165.1389312744140625 164.9608154296875 164.5530242919921875 164.5379486083984375 162.1970367431640625 161.9249114990234375 161.456878662109375 160.0881805419921875 160.14324951171875 159.6829071044921875 158.8013458251953125 158.0261383056640625 156.8646392822265625 155.55682373046875 154.6711883544921875 154.2008819580078125 154.148681640625 153.741058349609375 153.1826934814453125 152.8236846923828125 152.67913818359375 152.2628021240234375 152.0409393310546875 152.490875244140625 152.9306640625 152.4721832275390625 151.83404541015625 152.749359130859375 152.1208038330078125 151.1729888916015625 150.92791748046875 151.1601715087890625 151.107574462890625 151.249053955078125 151.2036895751953125 151.3626556396484375 151.4191436767578125 151.1210174560546875 150.328369140625 149.3513946533203125 148.812103271484375 148.1444549560546875 146.809234619140625 145.9242706298828125 144.97943115234375 144.0799713134765625 143.3239288330078125 143.14129638671875 143.08929443359375 143.057403564453125 142.9587249755859375 142.7231903076171875 142.431182861328125 142.2113037109375 142.0787811279296875 141.857086181640625 141.639923095703125 141.4681243896484375 141.3567047119140625 141.4397735595703125 141.499053955078125 141.7059326171875 141.934173583984375 142.021087646484375 142.1903228759765625 142.6109619140625 142.8748016357421875 143.0242767333984375 142.9521942138671875 142.951385498046875 142.8034820556640625 142.7036895751953125 143.1467742919921875 143.0766754150390625 142.9555206298828125 142.9990997314453125 142.9982147216796875 143.3023223876953125 143.289093017578125 143.228485107421875 143.2100677490234375 143.1728057861328125 143.126312255859375 143.1772308349609375 143.4897308349609375 144.0840301513671875 144.7329559326171875 145.642730712890625 146.6866455078125 147.430999755859375 148.617523193359375 151.20318603515625 153.9177398681640625 154.207611083984375 155.60931396484375 158.7909393310546875 158.7147064208984375 158.051239013671875 156.894378662109375 156.6932373046875 156.661041259765625 156.8648223876953125 158.0701446533203125 159.3550567626953125 161.16802978515625 163.3425750732421875 166.198944091796875 167.3898468017578125 165.7374267578125 165.074615478515625 165.780303955078125 167.3616943359375 168.24786376953125 170.765594482421875 172.4785003662109375 173.1369781494140625 174.4350128173828125 177.0037994384765625 178.08111572265625 177.9847564697265625 176.176544189453125 174.0659942626953125 172.3220672607421875 172.9413909912109375 -9999 -9999 -9999 -9999 -9999 -9999 -9999 -9999
156.9207916259765625 156.3713531494140625 156.529754638671875 157.10821533203125 159.444366455078125 162.736297607421875 164.1126556396484375 164.6285247802734375 165.80322265625 165.958038330078125 165.46075439453125 164.985870361328125 163.69061279296875 162.0314178466796875 161.9257659912109375 161.9532318115234375 160.9271697998046875 161.4631805419921875 161.0119781494140625 158.857330322265625 157.2821807861328125 156.581878662109375 155.474456787109375 154.6390533447265625 154.5142364501953125 154.3706512451171875 154.389434814453125 153.571502685546875 153.07916259765625 152.673675537109375 152.315673828125 152.1086578369140625 151.8711700439453125 152.2751617431640625 152.3170166015625 151.63885498046875 151.5065460205078125 152.721343994140625 151.61761474609375 151.33355712890625 151.211395263671875 151.199737548828125 151.3544769287109375 151.374786376953125 151.2938079833984375 151.2453155517578125 151.152862548828125 150.5848541259765625 149.762603759765625 149.11053466796875 148.578369140625 147.094696044921875 146.1315460205078125 145.1132354736328125 144.450653076171875 143.7080535888671875 143.61669921875 143.49578857421875 143.30096435546875 143.0508575439453125 142.849639892578125 142.54498291015625 142.2554473876953125 142.08660888671875 141.8203887939453125 141.5980224609375 141.483551025390625 141.3143463134765625 141.3188323974609375 141.494537353515625 141.7181396484375 141.912017822265625 141.987060546875 142.071319580078125 142.3565521240234375 142.5785675048828125 142.6946563720703125 143.0554046630859375 143.3222808837890625 142.8275909423828125 142.8362884521484375 142.78363037109375 142.9050140380859375 142.921600341796875 142.8843994140625 142.9047393798828125 143.23211669921875 143.4713287353515625 143.33123779296875 143.209259033203125 143.167022705078125 143.1039276123046875 143.125335693359375 143.3461761474609375 143.7844390869140625 144.4153594970703125 145.066131591796875 145.991790771484375 146.9561004638671875 148.2129669189453125 150.3582000732421875 152.6937255859375 153.892120361328125 153.70880126953125 155.3776397705078125 156.8427276611328125 157.3228912353515625 157.643524169921875 158.4471435546875 156.51165771484375 156.46026611328125 156.5343475341796875 156.68475341796875 156.919708251953125 158.069427490234375 161.9555816650390625 165.47998046875 165.6616973876953125 165.2149658203125 165.558380126953125 166.5817108154296875 167.74151611328125 169.92535400390625 171.84967041015625 172.690155029296875 174.243621826171875 175.950347900390625 178.1999969482421875 179.485809326171875 178.3261871337890625 176.124298095703125 174.014007568359375 172.491485595703125 172.7016448974609375 -9999 -9999 -9999 -9999 -9999 -9999 -9999
-9999 156.412017822265625 156.6067657470703125 157.1778717041015625 159.8832550048828125 162.9673919677734375 163.7780609130859375 164.0370330810546875 164.7564697265625 165.5400238037109375 165.7463226318359375 165.0535125732421875 164.55572509765625 162.72265625 162.468109130859375 164.056243896484375 162.7275848388671875 163.49652099609375 163.1259918212890625 160.141448974609375 157.638214111328125 156.669464111328125 155.5205535888671875 154.9084014892578125 154.728179931640625 154.5705718994140625 154.17840576171875 153.68597412109375 153.3298492431640625 152.9030914306640625 152.6251983642578125 152.301971435546875 151.839447021484375 151.68853759765625 151.7270050048828125 151.452423095703125 151.2479095458984375 151.56842041015625 152.6617889404296875 151.717559814453125 151.3947906494140625 151.3406982421875 151.2371978759765625 151.3085784912109375 151.2324066162109375 151.2918853759765625 151.3303680419921875 150.8355865478515625 150.15753173828125 149.6850128173828125 149.097869873046875 147.5568695068359375 146.4229888916015625 145.502655029296875 144.934661865234375 144.4383392333984375 144.1571502685546875 143.815399169921875 143.5875396728515625 143.1731414794921875 142.9028778076171875 142.5148773193359375 142.3203125 142.18524169921875 142.0145721435546875 141.81439208984375 141.5105743408203125 141.307159423828125 141.256134033203125 141.459686279296875 141.6690673828125 141.90960693359375 141.9914398193359375 142.0403594970703125 142.11102294921875 142.23577880859375 142.3114166259765625 142.2609100341796875 142.9874114990234375 142.8859405517578125 142.881805419921875 142.867401123046875 142.7781219482421875 142.85882568359375 142.990142822265625 143.032684326171875 143.07366943359375 143.4770660400390625 143.4942169189453125 143.309967041015625 143.226043701171875 143.1662139892578125 143.1153106689453125 143.23883056640625 143.639984130859375 144.0897369384765625 144.725189208984375 145.3812255859375 146.426513671875 147.301422119140625 148.941497802734375 150.94781494140625 152.172210693359375 153.2225341796875 155.1868438720703125 156.2983551025390625 156.620635986328125 156.7346343994140625 158.1159515380859375 156.7249755859375 157.7248077392578125 157.0799407958984375 156.614898681640625 156.6660919189453125 157.0710906982421875 158.8311614990234375 162.533905029296875 164.9682464599609375 165.45001220703125 164.9926605224609375 165.477386474609375 166.785919189453125 167.9700927734375 169.428802490234375 170.9127349853515625 173.8830108642578125 174.400543212890625 176.715301513671875 179.1753082275390625 179.2122802734375 177.638031005859375 176.01715087890625 173.996551513671875 172.32196044921875 -9999 -9999 -9999 -9999 -9999 -9999 -9999
-9999 -9999 -9999 157.086395263671875 159.5518798828125 163.925445556640625 163.7597808837890625 163.5594482421875 163.3944549560546875 164.2054595947265625 165.1226654052734375 164.87054443359375 166.4576416015625 165.009033203125 162.918670654296875 164.266082763671875 163.647186279296875 163.5264434814453125 163.075286865234375 160.88916015625 158.631439208984375 156.5781097412109375 155.6237945556640625 155.1516265869140625 154.985687255859375 154.687103271484375 154.2296905517578125 153.7268218994140625 153.4215850830078125 153.257049560546875 152.893951416015625 152.317047119140625 151.8879547119140625 151.52880859375 151.438934326171875 151.2940826416015625 151.172454833984375 151.2075653076171875 151.7589111328125 152.54534912109375 151.437744140625 151.347076416015625 151.30792236328125 151.360595703125 151.339752197265625 150.9009552001953125 151.23956298828125 150.9206695556640625 150.2255401611328125 150.0720977783203125 149.498748779296875 147.9919281005859375 146.7306060791015625 146.043701171875 145.515625 144.974853515625 144.47625732421875 144.1173095703125 143.769439697265625 143.168060302734375 142.6737823486328125 142.38323974609375 142.3605499267578125 142.4065399169921875 142.264373779296875 142.057830810546875 141.6685028076171875 141.3256683349609375 141.281829833984375 141.388702392578125 141.62188720703125 141.9100189208984375 141.9820098876953125 142.0260467529296875 142.0591583251953125 142.069427490234375 142.1313629150390625 142.0843963623046875 142.576385498046875 142.8300018310546875 142.97540283203125 142.8981475830078125 142.938568115234375 142.958343505859375 143.0098419189453125 143.0400390625 143.0038299560546875 143.3199615478515625 143.6295623779296875 143.4731597900390625 143.2619171142578125 143.1681976318359375 143.132568359375 143.209136962890625 143.5225677490234375 143.883056640625 144.4384307861328125 145.0576629638671875 145.815521240234375 146.8389434814453125 147.9234161376953125 149.5394744873046875 150.58685302734375 152.9700927734375 154.262481689453125 155.026763916015625 155.148956298828125 154.94622802734375 154.163604736328125 156.3993682861328125 160.0351409912109375 159.9987640380859375 157.776092529296875 157.9141998291015625 158.6145782470703125 159.8096160888671875 161.5466461181640625 163.3619537353515625 165.41070556640625 165.464263916015625 164.9076385498046875 165.48602294921875 166.5840606689453125 167.9491424560546875 170.2474212646484375 171.479400634765625 172.795074462890625 175.198028564453125 178.52410888671875 179.364501953125 178.2867279052734375 177.4235992431640625 175.833221435546875 173.92730712890625 -9999 -9999 -9999 -9999 -9999 -9999 -9999
-9999 -9999 -9999 157.4557342529296875 157.981689453125 162.4221038818359375 163.50787353515625 163.65374755859375 162.6667633056640625 163.4620513916015625 163.431304931640625 163.8678436279296875 166.809295654296875 166.947906494140625 164.1397552490234375 163.721405029296875 164.3167877197265625 163.7469635009765625 162.62957763671875 161.26165771484375 159.420135498046875 157.2169647216796875 155.927886962890625 155.36236572265625 155.0369873046875 154.7649383544921875 154.39031982421875 153.838958740234375 153.528045654296875 153.35430908203125 152.9490509033203125 152.5013275146484375 151.9206695556640625 151.5456390380859375 151.38446044921875 151.293670654296875 151.3643798828125 151.2232208251953125 151.332672119140625 151.9937896728515625 152.3807525634765625 151.8169097900390625 151.5877685546875 151.4738006591796875 151.3023223876953125 151.1673583984375 151.3169097900390625 151.125885009765625 150.402679443359375 150.4711761474609375 149.8661346435546875 148.484283447265625 147.053314208984375 146.358123779296875 146.0472564697265625 145.3760528564453125 144.78631591796875 144.3116455078125 143.880645751953125 143.245086669921875 142.9039764404296875 142.8549041748046875 142.702850341796875 142.4466400146484375 142.282989501953125 142.0685882568359375 141.8077545166015625 141.49737548828125 141.3145294189453125 141.327178955078125 141.5701141357421875 141.81591796875 141.9422149658203125 142.0002593994140625 142.0260162353515625 142.049560546875 142.0662994384765625 142.1156158447265625 142.2610321044921875 142.5236968994140625 143.1044769287109375 143.3594207763671875 143.424591064453125 143.0547027587890625 143.0392608642578125 143.0024566650390625 143.0401153564453125 143.0965576171875 143.6382904052734375 143.593780517578125 143.44439697265625 143.243743896484375 143.1920166015625 143.2584228515625 143.4649810791015625 143.722320556640625 144.2061309814453125 144.801971435546875 145.42242431640625 146.2713775634765625 147.1414337158203125 148.3988037109375 149.882904052734375 151.4189605712890625 153.2069549560546875 153.5055694580078125 153.0938873291015625 153.3411865234375 152.204132080078125 153.3914031982421875 159.6620941162109375 161.2230224609375 160.64801025390625 160.9627532958984375 161.4278564453125 161.2062835693359375 161.1209564208984375 161.5614166259765625 163.581268310546875 164.5286712646484375 164.2291717529296875 163.991912841796875 165.0723876953125 166.9791259765625 171.1138916015625 171.476776123046875 171.050262451171875 173.7159881591796875 178.8326263427734375 180.574462890625 180.1111907958984375 178.9014129638671875 177.0153656005859375 176.301300048828125 -9999 -9999 -9999 -9999 -9999 -9999 -9999
-9999 -9999 -9999 157.5550079345703125 157.5813446044921875 158.65185546875 160.2140655517578125 161.7399749755859375 161.422271728515625 164.272674560546875 163.1473541259765625 163.3088531494140625 166.8760986328125 168.753448486328125 165.1703643798828125 163.7919158935546875 163.696563720703125 163.1490325927734375 162.4694976806640625 161.3758544921875 160.4102020263671875 158.8709869384765625 156.597320556640625 155.9290618896484375 155.4990692138671875 154.868560791015625 154.3444061279296875 153.894134521484375 153.5003662109375 153.06085205078125 152.7617645263671875 152.32928466796875 151.911651611328125 151.600982666015625 151.4042510986328125 151.5959014892578125 151.5428924560546875 151.1951904296875 151.08917236328125 151.2518463134765625 152.213165283203125 151.9398193359375 151.6041717529296875 151.5471649169921875 151.2679290771484375 151.1188201904296875 151.14617919921875 151.082427978515625 150.66204833984375 150.6246337890625 150.0553131103515625 149.1027679443359375 147.408233642578125 146.5472869873046875 146.017913818359375 145.4459381103515625 144.9106292724609375 144.361236572265625 143.766143798828125 143.2965087890625 143.27679443359375 143.0418243408203125 142.7925567626953125 142.6850738525390625 142.462982177734375 142.1671295166015625 141.8961029052734375 141.7004852294921875 141.587890625 141.3119964599609375 141.4758453369140625 141.7589874267578125 141.886383056640625 141.9499969482421875 142.0073699951171875 142.0242767333984375 142.039398193359375 142.1149139404296875 142.10638427734375 142.310699462890625 142.6835784912109375 143.149444580078125 143.26837158203125 143.0648651123046875 143.0606689453125 143.06390380859375 143.0054779052734375 143.040771484375 143.58685302734375 143.733856201171875 143.6705474853515625 143.3795166015625 143.297760009765625 143.24407958984375 143.471710205078125 143.6358795166015625 144.04931640625 144.5826568603515625 145.16485595703125 145.7765045166015625 146.4428558349609375 147.2722930908203125 148.71368408203125 149.887115478515625 151.76214599609375 152.7875213623046875 151.54473876953125 151.3283538818359375 150.880767822265625 151.813323974609375 159.0202789306640625 161.8098602294921875 162.29217529296875 162.554351806640625 161.6915283203125 162.0832672119140625 161.6899566650390625 161.709014892578125 162.463226318359375 162.5026702880859375 162.5791015625 162.6374664306640625 163.0853271484375 164.852264404296875 168.9819488525390625 171.212188720703125 171.21380615234375 172.4879150390625 177.52001953125 181.9212799072265625 182.452911376953125 180.9656219482421875 178.562408447265625 176.9983978271484375 -9999 -9999 -9999 -9999 -9999 -9999 -9999
-9999 -9999 -9999 157.526947021484375 157.5923004150390625 157.6549530029296875 157.8206024169921875 158.519561767578125 159.3330078125 162.112701416015625 163.1957550048828125 163.1067352294921875 166.0039825439453125 167.800628662109375 164.610992431640625 163.7633056640625 163.540283203125 162.406707763671875 161.616302490234375 161.2657318115234375 161.9910736083984375 160.393402099609375 158.9033966064453125 157.6531219482421875 156.2880401611328125 155.5185089111328125 154.769989013671875 154.23431396484375 153.5221405029296875 152.9136810302734375 152.4985809326171875 152.345733642578125 152.121917724609375 151.6904449462890625 151.764373779296875 151.8861541748046875 151.6045989990234375 151.130828857421875 151.0578155517578125 151.30731201171875 151.490386962890625 152.3662872314453125 151.732391357421875 151.6991119384765625 151.3919525146484375 151.042083740234375 151.21942138671875 151.1735687255859375 150.8239593505859375 150.844696044921875 149.9150238037109375 149.277496337890625 147.659698486328125 146.4227294921875 145.814971923828125 145.3330230712890625 144.8204345703125 144.24114990234375 143.9347686767578125 143.7327423095703125 143.5695648193359375 143.3360748291015625 143.0791015625 142.840057373046875 142.594451904296875 142.28558349609375 142.00836181640625 141.815093994140625 141.689453125 141.4666595458984375 141.36212158203125 141.6318511962890625 141.824951171875 141.93292236328125 142.0206451416015625 142.0306854248046875 141.9952545166015625 142.1103363037109375 142.1303863525390625 142.241607666015625 142.4969940185546875 142.8856048583984375 143.2140350341796875 143.1018218994140625 143.05621337890625 143.0912017822265625 143.00006103515625 142.9720916748046875 143.4084320068359375 143.8365325927734375 143.7961273193359375 143.6355743408203125 143.3762359619140625 143.3437347412109375 143.434417724609375 143.6045379638671875 143.94195556640625 144.408447265625 144.9534912109375 145.427215576171875 145.997467041015625 146.5573577880859375 147.2293701171875 148.5746307373046875 149.7447509765625 152.0045623779296875 151.9467926025390625 150.2528228759765625 149.9337310791015625 150.4941558837890625 159.95977783203125 162.17987060546875 162.559356689453125 162.642486572265625 161.7957916259765625 162.9605560302734375 163.326507568359375 162.4936676025390625 162.9844512939453125 162.7218780517578125 162.539215087890625 162.39117431640625 162.46588134765625 162.731170654296875 165.87042236328125 168.946319580078125 170.18646240234375 171.062835693359375 175.4832305908203125 181.469024658203125 183.8502349853515625 183.0247802734375 180.2184906005859375 177.0108489990234375 -9999 -9999 -9999 -9999 -9999 -9999 -9999
-9999 -9999 -9999 157.5280609130859375 157.6533050537109375 157.666900634765625 157.7185211181640625 158.09832763671875 158.27734375 158.6769866943359375 162.165130615234375 162.9329376220703125 165.2147064208984375 166.2620849609375 165.02496337890625 163.62677001953125 162.455718994140625 161.5594635009765625 161.3733367919921875 161.5533294677734375 162.28057861328125 162.6237945556640625 161.9303436279296875 160.778533935546875 157.4197845458984375 156.703155517578125 155.3719329833984375 154.2338409423828125 153.53424072265625 153.336578369140625 153.125152587890625 152.872314453125 152.3193817138671875 151.996551513671875 152.2483062744140625 152.1073455810546875 151.567108154296875 151.150390625 151.06463623046875 151.1793365478515625 151.4062957763671875 151.9010162353515625 152.32122802734375 151.6587066650390625 151.49578857421875 151.2291717529296875 151.2893829345703125 151.1645660400390625 150.994842529296875 151.176116943359375 150.3333282470703125 149.465545654296875 147.9765777587890625 146.4528961181640625 145.538848876953125 145.229888916015625 144.88763427734375 144.59429931640625 144.2730865478515625 143.9176788330078125 143.70098876953125 143.475189208984375 143.25115966796875 142.9628448486328125 142.6618499755859375 142.383514404296875 142.2022552490234375 141.981048583984375 141.7347869873046875 141.5890655517578125 141.28472900390625 141.5523223876953125 141.7686920166015625 141.8775177001953125 141.9841156005859375 142.0412139892578125 142.0064239501953125 142.0337677001953125 142.1047210693359375 142.0995330810546875 142.26483154296875 142.6902313232421875 143.2359161376953125 143.1113128662109375 143.0323028564453125 143.0953216552734375 143.031219482421875 142.964874267578125 143.25701904296875 143.9364776611328125 143.892608642578125 143.7779388427734375 143.55865478515625 143.4703216552734375 143.4728851318359375 143.6219024658203125 143.8402557373046875 144.250732421875 144.6850738525390625 145.2338104248046875 145.765869140625 146.0870208740234375 146.206451416015625 146.727691650390625 147.4829864501953125 149.135650634765625 149.6870574951171875 149.5232696533203125 149.9347076416015625 152.5139923095703125 160.660430908203125 162.105987548828125 161.993408203125 161.998016357421875 161.54608154296875 162.347747802734375 163.8135223388671875 163.4694366455078125 163.084716796875 163.351776123046875 164.351318359375 163.18927001953125 163.0603790283203125 162.76727294921875 162.6641693115234375 163.3868560791015625 165.7906036376953125 168.68804931640625 172.8873291015625 178.2096405029296875 181.051788330078125 182.1681671142578125 180.4606475830078125 177.8040924072265625 -9999 -9999 -9999 -9999 -9999 -9999 -9999
-9999 -9999 -9999 157.6616973876953125 157.7776336669921875 157.8341217041015625 158.001434326171875 157.98345947265625 158.1815643310546875 158.3950653076171875 159.13275146484375 161.481781005859375 163.7202301025390625 164.020477294921875 163.2171478271484375 161.9572296142578125 161.54656982421875 161.5662689208984375 162.0301361083984375 162.249267578125 161.50421142578125 161.5061187744140625 161.7881927490234375 161.0689697265625 158.6193389892578125 157.04571533203125 155.271636962890625 154.337615966796875 154.250701904296875 154.1699981689453125 153.946197509765625 153.4549713134765625 152.754302978515625 152.3826446533203125 152.56732177734375 152.17010498046875 151.719085693359375 151.3755645751953125 151.1011505126953125 151.180999755859375 151.4237823486328125 151.8148193359375 151.9335479736328125 152.2690887451171875 151.8679046630859375 151.429351806640625 151.219451904296875 151.2753143310546875 151.254180908203125 151.2127685546875 150.8089752197265625 149.9785308837890625 148.261749267578125 146.8571929931640625 145.887420654296875 145.53173828125 145.1668853759765625 144.8560333251953125 144.48175048828125 144.1958160400390625 143.9035797119140625 143.6944427490234375 143.49151611328125 143.140411376953125 142.7771148681640625 142.4483642578125 142.2211151123046875 142.043701171875 141.8069610595703125 141.6147613525390625 141.4005126953125 141.499908447265625 141.6995849609375 141.8373260498046875 141.9369354248046875 142.025634765625 142.0500640869140625 142.0044708251953125 142.097381591796875 142.0741424560546875 142.2325897216796875 142.5523834228515625 143.114776611328125 143.1212005615234375 143.10223388671875 143.005645751953125 142.9952850341796875 142.955963134765625 143.1286773681640625 143.844635009765625 143.982940673828125 143.8392791748046875 143.6735382080078125 143.550689697265625 143.4857330322265625 143.601654052734375 143.7622833251953125 144.058349609375 144.524627685546875 145.0968170166015625 145.524017333984375 145.648681640625 145.40814208984375 145.435699462890625 145.8273162841796875 146.638916015625 148.0017242431640625 151.2022705078125 152.4278106689453125 154.6327056884765625 159.334686279296875 161.1349029541015625 161.546173095703125 161.7369842529296875 162.07684326171875 163.23077392578125 163.9664154052734375 164.429290771484375 164.5037841796875 164.14697265625 163.7955474853515625 164.0648040771484375 164.08819580078125 163.6427459716796875 162.802520751953125 162.6414337158203125 163.088714599609375 166.3157501220703125 170.35662841796875 175.3325347900390625 178.363525390625 179.5797271728515625 179.1729888916015625 177.2513275146484375 -9999 -9999 -9999 -9999 -9999 -9999 -9999
-9999 -9999 -9999 159.7447357177734375 159.6890869140625 159.111846923828125 158.6748199462890625 158.6812286376953125 158.4935150146484375 158.605133056640625 158.693084716796875 159.248626708984375 160.5443115234375 161.770172119140625 161.5667877197265625 161.546478271484375 161.6783599853515625 161.722320556640625 161.8708953857421875 161.3961334228515625 160.4594573974609375 159.9053955078125 159.447662353515625 158.403289794921875 157.3678741455078125 156.159088134765625 155.480682373046875 155.3376922607421875 155.3084259033203125 155.2991943359375 155.078765869140625 154.4273834228515625 153.3097381591796875 153.1075592041015625 152.680694580078125 152.1825408935546875 151.86529541015625 151.5547943115234375 151.342071533203125 151.4358978271484375 151.385223388671875 151.7725830078125 151.872222900390625 152.119537353515625 152.2164459228515625 151.350677490234375 150.9182891845703125 151.1006317138671875 151.18829345703125 151.1138153076171875 150.9644775390625 150.58355712890625 148.7755279541015625 147.2100677490234375 146.24884033203125 145.688995361328125 145.3774566650390625 145.069976806640625 144.7962799072265625 144.48052978515625 144.1823883056640625 143.861663818359375 143.5970001220703125 143.331298828125 142.984527587890625 142.5823516845703125 142.319671630859375 142.1513824462890625 141.9721527099609375 141.7160797119140625 141.47369384765625 141.451416015625 141.673095703125 141.823028564453125 141.9248504638671875 141.982452392578125 142.0553741455078125 141.9281005859375 142.0547027587890625 142.1409912109375 142.1639556884765625 142.55120849609375 143.2223052978515625 143.190582275390625 143.0710296630859375 143.006591796875 142.96881103515625 142.97802734375 143.0340728759765625 143.6045684814453125 144.004791259765625 143.9173583984375 143.557373046875 143.58160400390625 143.61065673828125 143.6438751220703125 143.7230224609375 143.971435546875 144.4330291748046875 145.029510498046875 145.25042724609375 145.132965087890625 145.3321075439453125 145.6594696044921875 146.0740509033203125 147.3045806884765625 148.9034881591796875 151.273712158203125 152.7407684326171875 154.739532470703125 158.1553802490234375 159.5027923583984375 160.4475555419921875 161.6722412109375 162.7881622314453125 163.89544677734375 164.3498992919921875 164.89251708984375 165.3104400634765625 165.5129241943359375 165.0648345947265625 164.038970947265625 164.5577392578125 165.793487548828125 165.5246124267578125 164.76080322265625 164.002227783203125 164.4420166015625 166.853515625 170.6074676513671875 175.1629791259765625 177.932525634765625 178.13482666015625 176.9224090576171875 -9999 -9999 -9999 -9999 -9999 -9999 -9999
-9999 -9999 -9999 162.6116180419921875 164.4908447265625 163.5905609130859375 161.6834564208984375 162.556671142578125 163.40081787109375 163.7537384033203125 162.876953125 162.7666015625 162.863494873046875 163.388031005859375 163.91888427734375 163.8095703125 163.8328704833984375 163.5900115966796875 163.867340087890625 163.36370849609375 161.83233642578125 160.3447418212890625 159.4041748046875 158.28936767578125 157.1577301025390625 156.84014892578125 156.9796600341796875 157.370880126953125 156.95770263671875 156.8354339599609375 156.5494842529296875 155.7886199951171875 154.7823486328125 153.7991485595703125 152.86175537109375 152.2743072509765625 151.93572998046875 151.6415252685546875 151.531951904296875 151.5243072509765625 151.525238037109375 151.5980377197265625 151.9297943115234375 151.848419189453125 152.23492431640625 151.694580078125 151.068878173828125 151.0399627685546875 151.1396484375 151.08941650390625 150.352569580078125 150.204559326171875 149.3274688720703125 147.738037109375 146.8022918701171875 146.2872772216796875 145.7895050048828125 145.3418121337890625 144.980072021484375 144.728607177734375 144.5359649658203125 144.144927978515625 143.931671142578125 143.658233642578125 143.1573028564453125 142.72833251953125 142.438995361328125 142.262603759765625 142.0914459228515625 141.7953033447265625 141.567047119140625 141.3670196533203125 141.63623046875 141.7796478271484375 141.8695831298828125 141.9275970458984375 142.0234527587890625 141.92584228515625 141.994384765625 142.169403076171875 142.1006011962890625 142.382843017578125 143.0770721435546875 143.070159912109375 143.02752685546875 143.0148162841796875 143.052490234375 142.9925384521484375 142.8924102783203125 143.0566558837890625 143.6888427734375 143.745513916015625 143.7489776611328125 143.6597900390625 143.6809234619140625 143.5778656005859375 143.732086181640625 143.88690185546875 144.18280029296875 144.58795166015625 144.672698974609375 144.7682952880859375 145.79168701171875 146.3450469970703125 147.23004150390625 148.356964111328125 148.97216796875 150.0952606201171875 152.337158203125 154.6343536376953125 156.591400146484375 158.684173583984375 159.2311859130859375 161.062957763671875 163.001953125 163.6575469970703125 164.386566162109375 164.946441650390625 165.740386962890625 165.6522216796875 166.20233154296875 164.8374176025390625 163.936767578125 165.1818695068359375 165.3822174072265625 167.3206329345703125 168.67626953125 166.28094482421875 165.952850341796875 167.8205413818359375 169.8899078369140625 172.850738525390625 175.5279693603515625 176.08612060546875 -9999 -9999 -9999 -9999 -9999 -9999 -9999
-9999 -9999 -9999 160.2371826171875 164.7152252197265625 164.6537017822265625 163.41363525390625 163.765167236328125 166.1287078857421875 166.783660888671875 166.23919677734375 166.299957275390625 167.702392578125 167.6753692626953125 167.9632415771484375 168.407440185546875 168.3973236083984375 168.3881378173828125 168.22271728515625 167.3458099365234375 165.07000732421875 163.0006256103515625 160.5402679443359375 159.0551910400390625 158.6414337158203125 159.3516082763671875 159.3253173828125 159.2179107666015625 158.4823455810546875 157.8750152587890625 157.2905120849609375 156.5303497314453125 156.0894317626953125 154.3664398193359375 153.076629638671875 152.3834075927734375 151.989715576171875 151.7799072265625 151.5312957763671875 151.7102203369140625 151.654937744140625 151.5372161865234375 151.7682952880859375 151.8753204345703125 151.7394866943359375 152.32110595703125 151.4495697021484375 151.071563720703125 151.033416748046875 149.429931640625 147.3858642578125 147.37200927734375 148.088592529296875 148.2446136474609375 147.2757110595703125 146.7161712646484375 146.0061492919921875 145.5687408447265625 145.2756500244140625 145.0320892333984375 144.7337188720703125 144.2985382080078125 144.013641357421875 143.7879791259765625 143.3049468994140625 142.8756103515625 142.5710601806640625 142.3122100830078125 142.091583251953125 141.8018341064453125 141.5845489501953125 141.378265380859375 141.6010589599609375 141.7493896484375 141.809814453125 141.86151123046875 141.9312591552734375 141.977996826171875 141.9214019775390625 142.153289794921875 142.0937042236328125 142.290069580078125 142.7400054931640625 142.879180908203125 143.0728607177734375 143.0235595703125 143.0729217529296875 142.8534088134765625 142.851409912109375 142.8367462158203125 143.281280517578125 143.74603271484375 143.924713134765625 143.704193115234375 143.65203857421875 143.6255950927734375 143.6555633544921875 143.7780914306640625 143.8934326171875 143.95391845703125 144.32666015625 144.914794921875 145.9386138916015625 146.4043731689453125 146.897796630859375 147.40802001953125 148.110565185546875 149.225555419921875 151.077239990234375 153.229156494140625 154.9627838134765625 156.816741943359375 158.14373779296875 160.95404052734375 162.435699462890625 162.441741943359375 163.6138458251953125 164.53509521484375 165.3237152099609375 165.5455474853515625 165.1758880615234375 164.615264892578125 163.202423095703125 163.03369140625 163.606658935546875 167.2683563232421875 169.179229736328125 169.0487518310546875 166.9520263671875 167.6636962890625 169.26617431640625 170.5609893798828125 172.081329345703125 173.202972412109375 172.766326904296875 -9999 -9999 -9999 -9999 -9999 -9999
-9999 -9999 -9999 158.933837890625 164.0382080078125 165.208343505859375 163.817718505859375 164.7239990234375 166.9029541015625 167.64971923828125 169.5317230224609375 171.066497802734375 170.1240997314453125 169.8624267578125 170.1741943359375 170.4599151611328125 169.9810333251953125 169.6572113037109375 169.0940399169921875 167.8719635009765625 166.3039093017578125 164.865875244140625 162.59613037109375 160.5392303466796875 159.8497467041015625 160.2181396484375 160.260986328125 160.06964111328125 159.5619659423828125 158.8493804931640625 158.064361572265625 157.3040008544921875 156.789947509765625 155.311004638671875 153.6892852783203125 152.7625885009765625 152.23486328125 151.828643798828125 151.5948333740234375 151.54449462890625 151.71441650390625 151.618255615234375 151.563995361328125 151.7967681884765625 151.78759765625 151.433258056640625 152.190460205078125 151.213165283203125 151.2402191162109375 150.272735595703125 148.2543182373046875 147.538909912109375 147.6218719482421875 148.79833984375 147.6224517822265625 146.8825836181640625 146.2670135498046875 145.8220672607421875 145.5008087158203125 145.181427001953125 144.838958740234375 144.4533233642578125 144.0892791748046875 143.802703857421875 143.3769073486328125 142.9366912841796875 142.6113433837890625 142.2682342529296875 142.092071533203125 141.9371490478515625 141.68115234375 141.39581298828125 141.561065673828125 141.716461181640625 141.782806396484375 141.864166259765625 141.901519775390625 141.9448699951171875 141.893585205078125 142.0609893798828125 142.034698486328125 142.0690765380859375 142.5072174072265625 142.902069091796875 142.967193603515625 143.048431396484375 143.04986572265625 142.8950958251953125 143.0291900634765625 142.9965057373046875 143.0057373046875 143.6385040283203125 143.90057373046875 143.8020477294921875 143.6733856201171875 143.6624908447265625 143.7193603515625 143.841033935546875 143.9907989501953125 144.291229248046875 144.5562591552734375 144.944183349609375 145.6518096923828125 146.1038970947265625 146.3762359619140625 146.7308349609375 147.2003326416015625 148.320892333984375 149.92193603515625 151.834686279296875 153.2690887451171875 155.3094329833984375 157.240875244140625 160.5662994384765625 161.455413818359375 161.027008056640625 160.4818878173828125 163.5566864013671875 163.8973388671875 163.93280029296875 163.8296661376953125 164.4243316650390625 163.515838623046875 162.4839935302734375 164.572235107421875 167.3587493896484375 168.718170166015625 169.1893310546875 169.0618438720703125 167.139984130859375 167.00408935546875 168.6046295166015625 170.464080810546875 171.6729583740234375 171.5758056640625 171.5303192138671875 -9999 -9999 -9999 -9999 -9999
-9999 -9999 -9999 158.811798095703125 163.146820068359375 165.21881103515625 165.0506744384765625 167.976318359375 169.15313720703125 171.0618438720703125 173.9189300537109375 176.0878448486328125 173.297027587890625 172.487396240234375 172.5130157470703125 171.5645294189453125 170.7704010009765625 170.22100830078125 169.4172210693359375 168.94317626953125 167.5837860107421875 165.5789031982421875 163.687530517578125 161.9882049560546875 160.81988525390625 160.8086700439453125 160.806640625 160.6059112548828125 160.2627716064453125 159.85321044921875 159.71624755859375 159.1519775390625 158.8703460693359375 157.4503021240234375 154.480072021484375 153.2216033935546875 152.4185028076171875 151.9010162353515625 151.607086181640625 151.5288238525390625 151.7557220458984375 151.3649444580078125 151.47650146484375 151.821563720703125 151.7053375244140625 151.1977996826171875 151.6057891845703125 151.876953125 151.226409912109375 150.6206207275390625 148.495269775390625 147.6672210693359375 148.1797332763671875 149.6016998291015625 148.20684814453125 147.2243804931640625 146.6846466064453125 146.0791778564453125 145.6247100830078125 145.23870849609375 144.85772705078125 144.45477294921875 144.12762451171875 143.70794677734375 143.3723297119140625 143.0572509765625 142.722412109375 142.3675079345703125 142.1487579345703125 141.9555511474609375 141.691192626953125 141.377899169921875 141.531982421875 141.7078857421875 141.7786865234375 141.835784912109375 141.8681793212890625 141.919097900390625 141.8493804931640625 141.856475830078125 142.052276611328125 142.1907196044921875 142.310028076171875 142.8982391357421875 142.9776611328125 142.996490478515625 143.00311279296875 142.8980255126953125 143.0517730712890625 143.0691070556640625 142.9575042724609375 143.662384033203125 143.8233184814453125 143.9156951904296875 143.703887939453125 143.7005462646484375 143.7955322265625 143.9076385498046875 143.998687744140625 144.2733612060546875 144.4278411865234375 144.6629791259765625 145.0222015380859375 145.4480438232421875 145.75225830078125 146.0219879150390625 146.542144775390625 147.5466461181640625 149.1089324951171875 150.8625946044921875 152.3696136474609375 153.637969970703125 155.0277252197265625 157.3872222900390625 159.715545654296875 160.352569580078125 157.6790618896484375 160.303863525390625 161.0923309326171875 162.4317474365234375 163.43603515625 163.5572357177734375 163.44268798828125 162.544464111328125 163.7016754150390625 165.9984130859375 167.34503173828125 168.0879058837890625 167.931121826171875 167.6414794921875 166.359130859375 166.77166748046875 168.7056732177734375 171.581024169921875 172.813751220703125 172.15533447265625 171.4730224609375 171.278594970703125 -9999 -9999 -9999
-9999 -9999 -9999 159.1652984619140625 162.42108154296875 165.8741302490234375 167.9065093994140625 170.06353759765625 171.923309326171875 174.848663330078125 177.5665435791015625 178.0370330810546875 175.013458251953125 174.2634429931640625 175.2466583251953125 174.35797119140625 172.4282379150390625 170.7043914794921875 169.98126220703125 169.7661590576171875 168.41961669921875 166.2031402587890625 164.2625732421875 162.47021484375 161.34735107421875 161.3433990478515625 161.1560821533203125 160.955108642578125 160.704345703125 160.890960693359375 161.1947021484375 160.9172821044921875 160.767913818359375 158.2941436767578125 156.0164642333984375 154.416107177734375 153.1196136474609375 152.1867828369140625 151.85992431640625 151.9044036865234375 151.5521240234375 151.4070587158203125 151.506378173828125 151.760894775390625 151.522308349609375 151.23077392578125 151.299163818359375 151.96893310546875 151.476470947265625 150.960968017578125 148.20208740234375 147.490081787109375 147.430938720703125 148.86431884765625 148.955535888671875 147.6424560546875 146.92822265625 146.3792724609375 145.761138916015625 145.3217315673828125 144.815093994140625 144.5475921630859375 144.259185791015625 143.834716796875 143.4448394775390625 143.11297607421875 142.7412567138671875 142.450653076171875 142.183929443359375 141.8910675048828125 141.6502685546875 141.3712005615234375 141.52001953125 141.6631622314453125 141.7394866943359375 141.7601165771484375 141.7350311279296875 141.777252197265625 141.890838623046875 141.9701690673828125 142.055450439453125 142.147979736328125 142.2219390869140625 142.612640380859375 142.9840850830078125 142.9291839599609375 143.0015106201171875 142.938873291015625 143.042205810546875 143.0773468017578125 142.957427978515625 143.6043701171875 143.850341796875 143.994415283203125 143.8096466064453125 143.6212005615234375 143.7506103515625 143.9161224365234375 144.0139923095703125 144.17950439453125 144.2435455322265625 144.2871856689453125 144.57366943359375 144.9343719482421875 145.1778411865234375 145.4712982177734375 146.043670654296875 146.83062744140625 148.3538818359375 150.191131591796875 151.876556396484375 152.8375396728515625 153.441314697265625 153.945098876953125 155.3844757080078125 155.5735015869140625 155.747222900390625 156.2059173583984375 157.752838134765625 159.40582275390625 160.7521209716796875 161.020904541015625 161.608978271484375 162.6439361572265625 162.812408447265625 164.609039306640625 165.6730804443359375 166.2543182373046875 166.9071044921875 167.981903076171875 166.6798858642578125 166.376434326171875 166.730926513671875 168.7839202880859375 172.4005889892578125 171.957275390625 170.729736328125 170.3984375 -9999 -9999 -9999
